ply
format ascii 1.0
comment Created by Open3D
element vertex 2146
property double x
property double y
property double z
property uchar red
property uchar green
property uchar blue
end_header
278 301 98 130 123 123
278 302 98 114 94 93
278 300 100 141 138 140
278 301 102 132 128 129
278 302 102 141 137 139
278 297 104 142 139 143
278 298 104 135 131 132
278 299 106 134 133 137
279 296 109 115 123 134
279 297 111 122 128 139
279 299 109 132 128 128
278 300 105 133 132 137
278 301 107 136 133 137
278 302 107 135 132 135
278 301 108 142 138 138
279 301 110 139 135 137
279 303 108 140 137 140
280 288 110 117 123 134
280 293 111 102 114 129
279 298 113 114 123 136
279 301 113 145 141 144
280 288 112 109 120 136
280 289 114 121 126 136
280 291 112 110 102 96
281 290 115 122 128 138
281 288 118 107 96 88
281 290 118 99 94 93
282 289 119 128 119 114
280 293 113 108 108 112
280 294 113 104 113 125
280 295 115 93 81 85
281 292 118 121 126 136
280 295 117 124 111 106
281 295 118 131 128 132
283 288 121 134 118 105
282 290 121 130 121 117
283 290 123 133 123 117
282 292 121 120 113 112
283 293 122 110 104 100
282 294 122 124 122 125
283 294 124 113 101 90
284 288 124 121 70 28
285 288 126 131 68 13
285 290 125 106 92 73
286 288 127 128 64 15
284 293 124 105 93 83
284 294 124 107 94 81
285 294 127 127 116 106
280 296 113 94 114 133
280 298 113 106 119 134
280 296 117 112 87 88
281 296 119 121 124 131
280 299 117 110 120 133
280 300 114 141 142 150
280 302 115 145 141 144
280 301 117 104 119 136
281 301 119 114 120 131
280 303 118 111 121 133
281 298 120 94 94 96
282 296 122 120 125 135
282 299 121 111 113 119
283 296 124 114 104 96
283 299 125 122 122 127
281 302 121 122 123 129
282 300 123 113 120 132
282 302 123 117 114 115
283 301 125 116 124 136
283 303 125 114 121 132
284 297 126 123 110 97
284 298 126 116 103 92
284 300 126 123 119 120
284 303 126 113 122 135
278 304 98 99 48 54
279 305 99 95 54 61
279 306 99 78 63 75
278 305 101 111 91 91
279 306 100 81 51 66
279 307 102 77 44 60
279 308 100 82 105 125
279 309 102 82 101 120
279 311 102 80 111 137
279 305 105 139 137 139
279 306 104 129 124 123
279 307 106 136 131 129
279 304 110 145 141 143
279 307 108 139 135 137
279 308 104 86 56 61
279 309 106 96 41 55
279 310 106 89 46 62
279 309 108 116 103 100
279 310 108 98 53 56
279 311 110 113 87 85
280 307 96 75 105 131
280 309 98 78 107 131
281 310 96 71 99 124
280 310 100 80 110 135
280 308 111 147 143 145
281 312 97 75 104 129
281 312 98 76 106 132
281 314 99 71 101 126
282 315 97 72 98 123
281 313 100 69 98 124
281 314 100 70 98 124
281 314 102 75 105 130
282 316 97 71 98 122
282 317 98 74 102 126
283 319 97 70 94 117
283 319 99 73 101 125
281 317 103 70 96 119
282 318 100 73 100 124
282 318 103 71 98 121
280 313 104 79 109 135
280 314 104 80 109 135
280 314 107 79 107 131
280 313 109 75 68 76
280 314 109 88 105 122
280 315 111 91 113 132
280 316 107 72 104 131
281 318 105 77 106 130
282 318 104 79 105 128
280 316 109 85 116 142
280 317 110 82 115 142
281 319 109 74 103 129
279 304 113 135 133 136
280 305 113 141 138 142
280 306 113 143 141 146
280 307 115 145 143 147
280 305 118 143 142 147
280 306 117 140 137 139
281 307 118 144 141 144
280 308 114 140 137 141
280 311 112 148 142 140
280 308 116 137 135 138
281 308 118 140 138 142
280 311 116 121 122 128
281 311 119 141 137 139
281 306 121 106 118 134
282 304 122 113 116 123
282 307 122 105 117 132
283 305 124 110 111 116
283 306 125 112 115 122
281 309 120 142 141 147
281 311 120 142 138 140
282 309 122 118 127 140
282 308 124 112 119 131
283 309 127 100 107 117
283 310 127 110 116 127
284 305 127 108 118 131
284 311 127 119 126 138
280 312 115 138 136 139
280 315 113 82 58 72
280 312 117 125 125 129
281 312 119 142 139 142
280 314 118 146 143 145
280 316 112 84 107 127
280 317 114 79 79 94
281 319 113 79 112 139
280 316 117 116 93 90
281 317 118 108 87 83
281 318 118 105 71 74
281 313 120 135 135 140
281 315 120 134 133 139
282 313 122 144 141 143
282 312 124 112 120 133
283 312 127 112 123 137
282 315 125 139 139 145
283 315 127 110 121 136
281 317 122 139 136 138
281 319 122 126 112 107
282 319 123 138 129 130
282 317 126 141 142 149
282 318 125 138 138 143
283 318 127 117 125 139
288 262 71 154 153 158
288 263 74 127 112 112
288 267 71 120 90 96
288 265 73 118 100 100
288 266 73 103 83 83
288 267 75 94 101 123
288 269 73 98 117 141
288 270 73 92 122 149
288 271 75 86 127 160
288 271 76 96 132 163
288 273 74 77 121 156
288 272 77 89 128 159
288 274 77 76 115 148
288 275 79 73 115 148
288 278 79 75 112 146
288 287 69 85 112 137
288 283 75 81 112 139
288 282 79 73 109 139
288 284 75 80 108 135
288 287 72 80 109 134
289 287 74 77 103 126
288 285 76 74 102 128
288 285 78 83 104 123
289 287 76 80 97 117
290 287 78 75 82 93
288 278 80 74 113 146
288 285 81 68 75 89
288 285 83 107 105 110
289 286 82 96 91 92
290 287 80 67 64 71
288 286 85 132 132 138
289 287 86 129 133 142
288 257 120 121 45 46
289 257 123 121 42 62
288 259 123 123 22 65
289 258 124 122 13 56
290 257 125 114 43 71
290 258 124 121 24 54
290 259 127 118 31 63
288 261 122 108 72 80
288 261 124 108 93 100
288 263 124 114 37 73
289 263 126 113 51 75
290 262 126 103 82 94
288 266 123 130 85 78
289 264 126 120 32 62
289 266 125 131 98 87
290 264 126 119 23 62
288 268 124 145 125 101
289 268 127 147 131 117
288 271 126 152 133 115
288 273 126 144 118 89
288 277 127 137 63 3
288 291 66 82 99 116
289 288 69 82 108 134
289 289 70 84 108 132
289 291 69 80 93 107
290 291 70 77 89 101
288 293 66 60 72 92
288 295 66 114 130 150
289 294 68 98 108 121
290 292 71 74 79 87
290 295 69 113 127 145
291 295 71 109 120 135
289 289 72 85 105 126
290 288 75 89 106 124
290 290 73 100 107 117
291 290 75 85 92 101
291 289 77 97 102 111
292 290 74 73 78 85
292 289 77 98 101 109
292 290 77 87 94 103
293 290 79 93 102 113
292 292 72 95 100 109
293 292 74 85 90 97
293 295 72 108 117 129
294 293 75 98 107 117
293 292 76 90 96 104
295 293 77 100 109 120
295 295 76 115 121 130
288 298 67 185 185 194
288 299 68 181 181 191
289 299 70 194 191 197
291 296 71 131 140 155
291 298 70 178 177 183
289 300 71 198 194 200
288 301 72 184 184 194
289 302 73 191 190 200
290 301 72 197 195 202
290 302 73 196 194 202
291 303 75 193 192 202
293 296 73 131 135 145
293 298 73 161 162 171
294 296 75 131 133 140
294 298 75 162 161 168
295 296 77 126 129 136
292 301 74 202 197 202
294 300 74 183 182 190
293 302 76 203 199 205
295 301 76 186 184 192
294 303 78 201 199 207
296 293 79 104 109 117
297 294 79 114 118 125
296 296 78 126 128 135
296 298 77 151 151 155
298 297 79 134 135 141
296 300 78 164 166 175
296 302 79 190 188 194
298 301 79 161 163 172
290 288 83 125 125 131
288 289 87 87 99 114
289 290 86 87 103 120
291 288 84 123 127 135
291 290 84 110 122 136
290 291 87 93 108 125
290 292 87 101 115 132
292 289 82 106 112 121
292 290 82 109 116 125
294 291 80 90 96 105
293 291 84 106 120 137
294 292 83 104 115 128
292 292 86 105 121 139
293 294 87 119 129 143
295 293 85 123 131 144
295 294 87 140 143 151
289 293 89 89 100 114
290 293 88 101 115 132
291 295 89 118 126 138
293 294 88 131 137 148
288 296 89 85 96 109
288 298 88 93 100 111
291 296 89 124 128 138
291 298 89 112 118 128
289 300 89 93 104 119
288 303 90 82 90 101
291 301 89 81 97 114
291 303 90 68 89 110
292 299 89 107 115 128
295 296 88 128 132 140
295 299 89 109 119 133
293 301 90 84 100 118
293 303 91 71 94 115
295 301 91 89 108 128
296 292 80 99 105 113
296 293 83 121 125 133
296 294 83 128 130 136
298 295 81 131 133 139
297 294 84 137 138 143
296 295 86 143 145 152
298 297 80 133 135 140
299 297 82 135 135 139
299 299 80 143 142 146
296 296 87 132 135 142
298 297 84 139 139 142
299 298 84 134 136 142
299 298 86 130 134 144
298 301 80 155 158 166
298 303 80 177 180 189
300 299 84 126 131 140
300 301 83 119 127 139
301 302 83 114 127 142
300 301 85 107 121 136
300 301 87 109 124 141
301 302 86 107 123 141
302 303 87 104 115 129
296 299 89 107 119 135
298 299 88 114 124 139
297 300 90 88 108 128
298 300 89 96 113 132
298 301 91 92 111 131
299 303 91 101 117 135
300 301 89 108 123 139
301 303 89 102 113 127
288 304 74 198 194 201
289 305 76 206 203 212
289 306 78 205 202 209
291 304 76 194 191 200
290 307 79 206 203 212
288 309 79 180 184 197
293 304 77 197 196 206
292 306 78 188 189 199
294 305 78 201 202 213
294 307 79 194 194 205
289 308 80 189 191 203
290 308 80 200 200 211
290 311 80 188 192 204
294 306 80 178 184 198
292 309 81 188 193 208
292 311 82 156 173 200
295 309 81 151 171 196
295 311 82 150 171 197
288 306 89 85 93 105
290 304 90 78 91 107
290 307 90 80 92 106
288 309 89 84 94 108
288 311 90 82 96 111
291 308 91 70 85 101
291 310 90 76 85 98
293 305 91 63 88 111
294 305 91 69 93 116
294 307 92 76 91 107
292 311 91 80 86 95
294 309 92 78 88 100
294 310 93 79 84 93
288 313 80 170 176 192
288 315 81 135 152 178
291 312 81 150 170 198
290 314 82 148 164 190
288 316 81 135 153 177
289 317 82 134 151 178
289 318 83 116 133 162
290 317 83 118 139 169
291 317 84 140 148 169
292 313 83 145 166 192
293 314 83 137 159 185
293 315 84 134 152 175
295 315 84 166 164 172
293 317 84 182 168 161
293 318 85 204 172 138
295 317 85 215 180 142
295 319 86 213 170 126
288 314 90 71 82 96
290 313 90 73 84 96
290 315 91 84 87 95
288 317 90 83 84 90
289 319 90 88 92 103
291 317 91 78 73 79
291 319 91 82 81 90
293 312 92 82 83 89
294 312 92 81 84 92
294 314 92 74 76 83
292 317 92 77 70 75
293 318 92 70 63 68
295 316 93 84 67 67
295 319 94 78 56 58
296 307 81 154 171 194
298 305 81 164 173 190
298 307 82 155 174 200
296 309 82 156 174 198
297 310 83 142 161 187
299 308 82 149 167 190
298 311 84 129 144 167
300 305 82 137 153 173
300 307 83 134 150 170
301 307 84 124 135 149
302 304 86 105 112 122
302 306 84 113 123 136
303 306 86 119 105 93
301 308 83 130 139 153
300 311 85 207 183 161
302 309 84 152 139 130
303 309 86 142 111 75
303 311 86 154 113 60
297 304 92 93 111 131
298 304 92 95 111 129
298 307 93 109 98 90
297 308 93 100 96 97
297 310 94 91 88 88
299 309 94 119 98 78
300 304 91 100 110 124
302 304 89 106 108 112
303 306 88 127 98 60
302 307 91 142 107 60
300 307 92 123 104 86
303 308 91 152 115 71
301 309 94 133 106 80
302 308 92 142 110 72
302 309 94 139 108 77
303 311 94 146 111 69
297 312 84 137 153 178
297 314 85 193 174 159
299 312 85 203 182 165
299 315 85 227 183 130
296 318 86 221 181 134
299 316 85 226 181 130
298 319 86 231 178 127
300 312 85 208 180 150
301 314 85 206 164 115
303 312 85 169 126 70
302 315 86 187 137 81
301 317 86 186 133 76
302 316 86 181 126 63
302 319 87 179 104 38
296 312 94 85 83 85
296 314 94 88 79 75
299 312 94 111 93 75
299 315 95 98 84 73
296 318 94 77 56 59
298 316 94 86 79 73
298 318 95 82 76 75
300 313 95 123 97 70
301 315 95 126 98 63
300 316 95 103 87 70
304 310 87 135 97 51
304 309 89 141 104 62
305 309 90 147 110 72
305 311 88 140 105 66
306 311 90 150 117 84
305 310 92 155 119 82
305 311 94 153 116 75
305 313 87 144 107 64
306 314 87 148 110 67
305 316 87 167 119 58
306 316 87 158 117 67
306 312 89 151 118 86
306 313 91 155 120 86
306 315 89 148 112 74
307 314 91 154 118 84
304 312 95 150 113 69
306 312 92 156 121 85
307 314 92 157 120 83
307 314 94 159 122 79
307 316 88 151 115 75
306 319 88 174 126 71
308 315 92 156 120 82
308 317 91 151 119 84
309 318 91 149 118 83
308 316 94 158 122 81
309 319 92 152 122 86
309 319 95 158 125 87
303 315 96 141 105 63
300 319 96 98 81 64
303 317 96 135 102 61
303 318 97 128 96 60
306 315 96 156 119 78
305 317 97 150 113 71
306 317 96 154 117 74
306 319 97 145 111 70
308 318 97 155 122 81
257 320 61 184 177 188
257 322 62 157 156 163
259 321 63 171 167 171
259 323 63 151 150 156
256 327 62 141 139 144
259 325 63 148 145 148
260 321 63 164 161 165
260 324 63 152 149 153
257 328 62 131 130 135
258 328 62 127 127 131
258 330 62 98 106 117
256 332 62 103 114 127
256 334 62 107 115 127
259 332 63 112 119 130
259 335 62 120 136 155
260 332 63 103 110 120
261 335 63 124 136 153
257 337 62 123 140 163
258 336 62 127 140 160
258 338 62 133 148 173
256 341 62 122 134 173
258 340 63 132 146 186
261 322 64 164 158 161
262 322 64 146 144 147
260 324 64 153 147 148
262 325 64 141 138 142
263 326 65 135 133 138
261 330 64 119 121 128
263 329 65 136 131 133
263 331 65 138 134 135
262 333 64 128 129 137
263 334 65 136 139 150
264 321 65 157 155 160
265 322 65 151 150 157
267 320 65 149 146 150
267 322 66 162 158 165
265 325 66 146 143 147
265 327 66 132 130 133
267 325 67 143 141 145
267 327 67 128 131 140
268 322 66 151 151 158
270 321 67 149 151 160
270 322 68 141 145 154
269 324 67 155 153 158
270 324 67 149 148 154
270 327 68 140 140 147
265 328 65 139 135 136
265 330 65 134 132 135
267 328 66 121 121 126
267 330 66 138 136 140
265 332 65 145 139 139
265 334 66 157 155 161
267 333 67 156 153 158
267 335 67 146 148 157
268 330 67 143 137 138
269 330 68 144 140 142
270 330 68 138 137 142
268 332 67 145 143 147
268 334 68 154 152 158
270 332 68 145 142 146
270 334 69 145 146 154
259 339 64 144 163 191
257 343 65 124 142 177
259 341 65 129 149 183
259 342 66 105 127 170
260 338 64 137 152 181
262 337 64 148 161 178
262 339 65 143 157 183
260 340 65 119 145 182
261 341 66 105 137 185
261 343 67 189 189 201
263 341 67 105 145 192
262 343 68 178 185 199
256 344 64 122 138 180
257 344 66 177 182 198
258 344 67 201 199 206
257 346 68 93 125 183
258 346 69 58 94 176
256 349 69 206 193 200
256 351 70 197 182 185
258 349 70 167 164 180
258 351 71 184 178 181
260 345 69 183 185 202
260 346 70 71 98 185
262 344 70 171 176 192
262 346 71 144 149 173
260 348 70 101 119 168
260 350 71 92 120 163
263 348 71 57 100 160
262 351 72 32 79 117
265 336 66 153 152 161
264 339 66 168 174 190
267 336 67 138 139 147
267 337 69 128 131 142
267 339 69 134 149 175
265 340 69 143 168 196
265 343 70 42 94 165
266 341 70 129 145 176
267 342 71 102 122 164
269 336 69 113 123 138
268 339 70 125 141 164
270 337 70 130 142 159
270 339 71 140 154 176
269 340 70 119 140 163
270 340 71 108 135 164
269 342 72 70 109 160
270 342 72 72 121 177
264 344 70 35 88 161
264 347 71 81 102 156
265 347 72 81 109 160
266 347 72 95 125 153
265 348 72 89 114 153
265 351 72 86 109 132
267 348 73 83 112 162
267 350 74 88 115 145
269 344 73 47 85 183
269 347 73 106 128 171
271 345 73 72 104 175
271 347 74 49 87 170
269 348 74 116 136 175
269 351 75 75 100 128
270 350 75 95 119 156
272 321 68 128 132 140
272 323 68 154 155 162
275 320 70 137 136 141
275 322 70 123 125 132
273 325 69 150 150 156
274 324 69 136 141 151
274 326 70 146 147 153
276 321 70 130 131 138
276 323 70 126 129 136
276 325 70 126 131 141
276 327 70 158 158 164
277 322 72 140 144 154
279 320 73 123 127 135
278 323 72 143 147 158
279 325 73 100 114 131
279 327 73 99 112 128
273 329 70 145 146 153
273 331 70 136 139 147
275 329 71 150 152 162
272 332 69 154 151 155
272 334 70 127 134 147
274 332 71 112 123 137
274 335 71 125 142 161
276 330 71 103 119 139
275 335 72 130 146 166
278 328 72 101 117 136
278 330 72 107 124 144
277 332 72 126 138 154
277 335 72 119 143 174
279 332 73 102 117 139
280 320 74 112 121 134
280 323 73 112 122 136
282 321 76 84 105 127
283 323 76 73 95 116
281 324 75 91 108 128
281 326 75 100 112 127
282 324 76 81 101 121
282 326 76 92 108 125
284 320 77 81 102 125
284 322 78 82 104 127
284 324 78 82 100 120
284 327 77 82 100 119
286 324 79 97 113 132
280 328 74 99 113 130
280 330 73 103 116 133
281 331 75 97 112 128
282 329 76 94 105 119
280 333 73 108 117 131
281 333 75 111 119 131
281 334 75 127 129 138
282 335 75 120 127 140
283 335 76 106 116 132
285 329 78 96 107 121
285 330 78 109 115 124
286 331 79 103 110 120
285 333 77 79 91 108
284 335 77 92 102 116
286 332 79 104 110 120
286 334 79 89 99 111
287 320 81 97 119 145
287 322 82 105 122 142
286 327 80 79 100 121
283 320 95 68 78 94
285 320 90 92 80 87
285 323 91 104 95 96
287 321 89 95 90 91
286 322 90 101 98 104
284 321 93 82 63 60
284 323 93 100 82 81
284 323 95 83 61 59
286 325 91 115 109 107
287 326 91 100 98 100
285 325 92 115 110 111
285 325 94 113 104 103
285 326 95 112 106 104
286 327 94 105 102 103
287 329 81 85 103 121
287 332 80 105 112 122
287 329 91 90 92 101
287 329 92 92 94 102
286 330 93 96 98 104
286 330 95 111 108 110
287 332 93 86 94 107
272 337 71 128 140 158
273 337 72 115 137 162
274 336 72 122 145 169
274 338 73 103 131 174
272 341 73 67 114 165
273 343 73 36 96 149
274 341 74 103 119 168
275 343 74 69 104 161
277 337 73 82 112 154
277 339 74 60 88 145
279 337 74 88 110 139
276 340 74 29 70 156
276 343 75 35 76 167
278 341 75 132 144 167
279 342 75 179 178 186
273 344 74 68 103 159
273 346 75 103 120 176
275 345 75 101 130 161
275 347 76 86 107 152
272 349 76 90 107 149
273 351 76 68 99 134
274 351 76 84 108 146
276 345 75 63 97 151
278 345 75 47 78 159
278 345 76 85 112 159
279 347 76 90 116 153
277 349 77 102 122 156
278 348 77 71 92 150
279 350 77 52 87 137
281 336 75 88 105 129
281 338 75 88 107 130
282 338 75 92 109 133
283 338 76 87 104 124
280 342 75 190 184 186
281 342 76 161 161 168
282 342 76 138 143 153
284 337 76 100 110 126
284 339 77 103 117 136
287 336 79 91 101 113
286 339 78 83 100 119
284 340 77 125 135 152
284 342 77 103 117 138
286 341 77 81 100 123
287 341 79 79 94 113
287 343 78 117 122 132
280 346 76 134 152 176
281 347 77 93 119 160
283 345 77 115 119 146
280 349 77 82 109 157
280 351 78 72 106 152
282 349 78 121 135 160
283 351 78 143 149 164
285 345 78 150 149 154
285 347 78 164 160 165
286 346 78 167 163 167
284 348 78 149 151 160
284 351 78 121 137 165
286 349 79 140 142 150
287 351 79 48 81 153
283 320 99 68 95 119
283 322 99 74 101 123
283 320 102 66 96 120
283 322 102 73 100 123
284 322 99 75 99 120
284 323 101 73 102 126
284 325 96 100 85 83
284 326 96 109 95 94
284 326 98 98 77 75
284 324 100 72 93 111
284 325 102 75 97 116
285 327 100 89 60 62
285 327 102 78 49 59
283 321 104 74 97 120
283 322 104 77 102 125
282 323 107 73 106 134
281 320 110 82 111 136
282 321 108 72 105 132
282 323 108 73 109 137
283 324 104 73 101 126
283 325 107 79 110 136
283 324 109 71 106 136
283 325 110 68 103 133
283 326 110 72 107 136
284 325 105 69 99 124
284 326 107 71 99 124
285 328 98 118 112 111
286 330 96 118 114 114
286 330 98 119 115 116
285 328 101 91 63 65
285 330 103 84 54 53
286 331 101 122 117 116
286 331 103 119 112 109
287 332 98 108 109 115
287 332 101 112 109 110
287 333 103 118 115 117
283 328 111 73 105 132
285 329 104 85 60 68
285 329 106 78 84 96
285 331 106 77 40 49
284 328 108 67 99 127
284 329 111 69 104 132
285 331 109 87 109 129
285 332 107 75 48 52
287 333 105 122 117 117
287 334 105 113 112 116
287 335 106 101 105 113
284 332 111 83 112 136
285 334 110 73 48 56
286 334 108 108 96 92
286 335 111 86 32 47
281 320 115 81 109 134
281 322 115 75 108 136
282 323 113 75 107 134
281 321 117 74 102 125
281 322 117 79 111 137
281 323 119 85 114 138
282 324 115 77 110 138
283 326 112 77 109 137
282 327 115 79 113 140
282 325 116 75 108 136
282 326 116 76 108 136
282 327 118 73 106 133
281 320 122 95 73 74
282 320 123 122 113 113
282 322 122 86 85 106
282 321 124 116 112 114
282 322 124 98 88 98
283 322 127 121 125 134
282 324 122 80 106 129
282 327 120 77 109 137
282 324 124 79 74 93
283 324 127 93 87 101
282 326 126 69 82 102
283 328 112 75 104 130
283 328 114 73 105 132
283 330 114 74 104 130
282 329 116 77 110 137
282 329 118 76 109 136
282 330 118 73 108 136
283 332 114 83 113 138
283 333 117 79 113 141
283 334 118 77 111 139
284 332 113 71 105 133
284 333 115 74 105 133
285 335 113 69 79 96
284 333 116 79 110 137
284 335 118 76 106 131
282 328 122 80 114 142
282 331 120 71 100 128
282 331 122 75 103 127
282 329 125 75 106 132
283 329 127 81 107 131
282 331 126 81 108 132
283 333 121 72 105 132
283 334 121 77 107 133
283 335 123 85 110 133
283 333 125 80 105 129
283 333 127 90 110 131
283 334 127 95 114 135
284 335 123 87 111 134
287 337 109 104 111 120
287 337 111 101 106 116
285 336 113 72 56 82
285 338 115 87 101 117
286 339 113 102 114 128
286 339 114 105 118 133
285 337 116 83 100 117
285 337 118 88 103 120
285 338 118 102 116 133
287 340 112 119 126 137
287 340 114 127 133 143
287 343 114 130 130 135
285 341 119 74 82 96
286 340 117 110 115 125
286 343 117 135 132 133
284 336 120 90 112 133
284 337 122 94 113 133
285 338 120 105 119 135
284 336 124 91 112 134
284 337 126 95 115 135
284 338 126 81 105 127
284 340 121 87 118 143
284 340 122 79 113 141
285 342 121 77 101 121
285 343 122 82 89 103
285 341 125 75 110 138
284 342 124 74 109 139
285 342 126 72 107 135
287 344 116 120 121 126
286 345 118 135 130 130
287 346 118 144 139 140
285 344 120 99 59 59
285 345 122 85 29 40
286 346 120 138 130 127
286 347 122 112 103 100
285 344 126 72 98 122
285 347 124 87 43 56
286 347 126 83 57 68
287 349 120 116 118 124
287 349 122 137 137 142
287 350 123 138 137 142
286 349 125 107 92 90
287 350 124 140 139 143
286 351 127 125 118 116
256 353 71 136 156 176
257 355 71 62 87 140
258 355 71 133 140 154
257 357 71 94 106 134
258 357 71 104 113 130
259 359 71 99 111 130
260 355 71 143 143 149
261 353 72 75 99 124
263 353 72 36 77 118
261 356 72 102 111 127
263 356 72 115 122 135
256 360 71 101 110 134
257 362 71 105 116 133
258 362 71 113 122 137
257 364 71 110 121 138
258 364 71 115 126 143
259 366 71 103 120 142
260 363 71 94 108 128
261 367 71 76 102 132
262 361 72 125 127 135
263 363 72 90 108 128
261 367 72 68 96 129
262 367 72 57 88 126
265 353 73 43 76 101
266 352 73 114 124 138
266 354 74 108 116 129
264 357 72 108 115 127
264 359 72 94 108 129
266 357 74 118 122 130
266 359 74 102 112 128
268 353 74 71 91 114
268 355 75 130 130 135
270 354 75 98 109 124
271 354 76 89 105 126
269 356 75 116 118 125
270 356 75 102 111 123
270 359 76 105 116 131
264 361 73 118 124 135
264 363 73 98 113 132
267 360 74 96 108 124
264 364 73 94 111 134
265 366 73 73 100 126
266 366 73 72 98 123
268 360 75 93 108 125
268 362 75 93 106 123
270 361 75 89 105 123
271 361 76 68 96 120
268 365 74 92 107 126
269 366 75 84 103 125
270 367 75 78 98 122
271 367 76 74 96 124
256 371 71 71 98 132
259 369 71 100 115 136
258 375 71 108 121 137
263 375 71 83 101 123
256 372 72 62 94 132
257 374 72 82 106 135
258 374 72 124 130 141
260 370 72 90 109 131
263 368 72 62 93 124
260 372 72 101 115 134
261 374 72 52 81 113
262 374 72 71 91 119
256 379 71 45 88 134
258 379 71 68 101 138
257 381 71 52 95 139
258 381 71 56 100 140
259 383 71 63 98 135
260 379 71 109 122 141
263 377 71 98 113 133
260 381 71 94 116 141
261 383 71 94 115 140
262 383 71 81 104 132
257 377 72 57 96 132
259 377 72 105 119 138
263 377 72 96 112 131
264 369 72 75 98 125
264 371 72 58 84 115
267 369 73 78 98 122
264 372 72 69 90 117
264 374 72 91 105 124
266 373 73 94 107 125
267 374 73 93 109 126
269 369 74 58 84 113
269 371 74 50 77 109
270 371 74 60 84 112
271 371 76 79 97 117
269 373 74 53 82 110
270 372 75 65 87 113
270 374 75 72 93 116
264 382 71 67 94 121
264 378 72 88 106 127
266 377 72 75 98 121
266 379 73 77 101 125
264 381 72 76 98 122
265 383 72 50 84 113
267 381 72 82 105 128
268 377 73 58 86 112
269 378 73 57 83 109
271 377 74 83 99 120
271 378 74 84 100 121
269 381 73 63 89 114
269 383 73 47 78 109
271 380 74 85 101 121
271 382 74 86 102 122
273 353 76 97 114 138
274 352 77 87 106 141
275 354 77 145 141 150
273 356 77 120 124 134
273 359 77 100 116 134
274 358 77 91 105 122
276 353 77 121 124 139
276 355 78 153 151 157
278 353 78 104 117 142
279 355 78 108 116 136
276 358 78 112 120 136
279 356 78 115 122 140
279 359 78 128 133 146
273 361 77 89 107 129
273 363 77 83 101 124
274 362 77 90 106 127
272 364 76 72 96 123
272 366 76 73 95 123
274 365 77 79 98 119
275 366 77 82 100 120
277 360 78 112 119 133
277 362 79 79 101 123
279 360 79 128 136 148
276 364 78 73 98 122
276 366 78 89 105 123
278 365 79 80 102 125
279 367 79 60 90 115
280 355 78 111 120 141
282 353 78 165 164 173
282 355 79 117 124 143
281 356 79 121 124 141
282 356 79 116 120 137
283 358 79 108 118 137
285 353 79 74 93 148
286 353 79 42 65 137
284 356 79 118 122 135
281 360 79 103 117 135
280 364 79 73 99 132
287 353 80 77 101 139
285 357 80 109 118 136
286 357 80 109 120 140
287 359 80 116 121 137
282 362 80 65 94 127
281 365 80 50 84 124
283 365 80 90 108 129
284 361 80 114 124 140
285 363 80 111 122 136
287 361 81 106 115 131
284 364 80 95 110 129
284 366 80 89 104 123
286 365 81 105 118 139
287 367 81 80 105 132
273 369 76 81 99 122
273 371 76 81 99 122
275 368 78 72 94 118
272 373 75 85 101 122
273 373 76 80 99 123
274 373 76 79 97 121
274 375 76 78 97 119
277 368 78 66 89 113
278 368 79 61 89 114
278 370 79 70 91 117
276 373 78 75 97 119
276 375 78 70 93 115
279 372 79 81 98 118
279 374 79 81 97 115
272 379 74 80 99 121
273 378 76 82 100 122
275 377 77 62 87 113
272 380 75 75 97 119
272 383 74 74 97 122
274 382 75 79 98 120
275 381 76 83 99 119
277 376 77 78 97 119
276 379 77 64 89 114
279 377 78 64 89 114
276 380 76 66 88 114
276 382 76 63 84 110
278 381 77 78 96 116
279 382 77 57 85 108
280 370 79 64 89 118
281 372 79 82 99 120
282 372 79 69 91 114
280 377 78 69 92 116
280 379 78 79 99 120
283 376 79 77 101 125
280 380 78 79 99 119
280 383 78 57 82 108
283 380 79 57 87 115
283 383 79 81 96 113
284 383 79 66 88 111
282 368 80 73 99 128
283 370 80 87 104 124
283 373 80 48 78 114
285 368 81 116 124 137
285 370 81 123 128 138
287 369 81 80 106 134
287 371 81 93 113 137
285 373 81 112 122 138
285 375 81 111 124 140
286 375 81 98 117 137
285 376 80 111 124 141
286 376 81 92 112 134
286 378 81 82 106 131
285 380 80 86 108 132
287 380 80 76 100 125
287 383 80 67 93 119
287 352 126 119 121 126
287 354 127 127 127 132
289 321 83 148 143 144
290 323 83 140 128 125
290 322 84 183 150 117
288 324 82 109 122 137
288 326 82 98 112 131
290 325 83 129 123 125
291 324 85 176 143 113
291 327 84 117 119 127
292 322 85 202 156 111
294 320 85 205 164 118
294 323 86 202 157 111
292 325 85 179 144 111
292 327 85 135 125 120
294 324 87 199 153 112
294 326 87 202 155 112
288 321 89 85 77 83
288 323 89 94 88 90
290 320 91 84 88 94
290 322 91 79 74 86
291 323 92 84 85 92
288 327 90 89 90 96
290 325 91 93 92 96
291 326 92 86 85 88
293 321 93 63 65 73
294 321 93 69 60 67
294 322 94 73 63 67
293 324 93 72 61 64
293 326 93 81 68 68
295 324 94 80 60 64
295 327 94 70 64 70
288 330 81 89 104 121
289 331 83 95 109 126
290 329 84 95 113 135
291 330 84 92 113 137
288 332 82 90 104 119
288 334 80 97 106 118
289 334 83 94 102 115
290 332 84 101 113 129
290 334 84 105 113 126
292 329 85 106 117 133
292 331 85 92 112 135
294 328 87 174 140 101
294 331 87 136 128 126
292 333 86 107 122 142
292 335 86 117 125 138
295 333 87 141 130 126
288 329 91 81 86 94
290 328 91 84 89 97
289 331 92 87 89 99
291 330 92 104 98 99
289 332 92 88 92 101
289 335 93 83 91 103
289 335 95 82 93 106
290 335 93 87 95 106
292 328 93 88 83 85
293 329 94 77 80 91
294 328 94 69 61 71
294 330 95 76 66 74
295 333 88 146 133 128
292 333 94 103 94 94
292 335 94 98 98 103
294 333 95 88 77 82
295 335 95 85 72 78
297 321 87 220 171 118
298 320 87 224 171 122
299 322 87 184 131 69
296 326 87 193 143 105
301 320 87 168 87 27
303 320 87 192 120 42
296 320 94 73 59 63
297 321 95 78 56 54
298 320 95 80 76 76
297 326 88 188 142 96
298 326 88 144 99 52
296 325 95 73 53 60
297 327 95 79 46 52
302 323 88 181 115 38
301 325 88 173 111 37
302 325 88 182 120 45
303 327 88 195 134 56
297 330 87 168 126 77
297 328 88 174 129 80
299 328 88 115 58 17
296 328 95 70 60 67
297 332 88 160 124 82
298 332 88 120 87 48
299 334 88 105 62 15
300 328 88 153 86 14
301 330 88 176 111 17
303 328 89 197 136 55
300 332 88 158 102 14
300 334 88 148 99 21
302 333 89 172 118 44
303 335 89 173 120 43
288 341 79 90 102 116
288 347 79 157 155 160
288 336 81 90 99 111
288 338 80 93 99 109
290 336 83 92 100 111
290 338 83 85 94 108
291 338 84 88 97 111
289 341 80 107 112 121
289 343 81 130 130 135
291 340 83 98 105 117
291 342 83 128 127 132
292 337 85 100 108 121
292 339 84 90 100 114
294 336 86 120 129 144
294 339 86 110 119 135
292 341 84 113 118 128
292 342 84 126 128 134
293 342 86 117 123 134
295 341 87 113 122 136
295 343 87 123 128 137
291 336 93 94 99 108
291 338 93 102 102 107
291 339 94 97 96 99
295 337 88 118 129 146
293 336 95 95 93 98
293 339 95 101 96 97
293 340 95 97 96 99
288 346 80 132 134 141
290 345 82 115 119 126
290 347 81 82 102 123
288 349 80 110 120 136
289 351 80 129 133 147
291 348 83 61 77 99
291 350 82 127 126 130
292 344 84 116 119 125
293 344 86 118 121 130
293 347 85 128 127 131
294 347 85 138 135 137
295 347 87 133 138 149
292 349 84 102 111 124
293 350 84 100 110 124
294 348 86 129 131 137
294 351 85 79 96 113
296 340 87 115 124 138
297 336 88 127 128 137
297 338 88 117 129 147
299 336 89 85 67 58
296 340 88 118 129 146
297 343 88 138 141 150
299 341 89 116 131 149
300 336 89 112 77 28
301 338 89 132 114 98
302 337 90 157 113 42
303 339 89 150 121 86
300 341 89 113 128 147
301 343 89 120 132 153
302 342 89 114 127 146
303 342 90 115 124 140
296 348 87 89 108 130
297 345 88 133 137 145
298 345 88 132 140 152
298 347 88 98 115 142
297 348 88 107 119 137
298 348 88 137 141 153
298 350 88 156 154 159
300 344 89 134 141 153
301 346 89 157 154 159
303 345 89 142 146 158
302 347 89 171 167 171
300 348 89 129 135 153
300 350 89 151 152 164
302 348 90 151 153 168
303 350 90 117 132 158
304 322 87 196 133 58
304 326 87 203 144 72
305 322 88 203 145 73
306 322 88 206 148 82
305 324 88 201 143 75
306 325 88 204 143 77
307 327 88 208 150 83
309 320 91 146 117 85
309 323 89 164 128 83
310 323 90 155 127 95
310 320 93 152 122 87
310 321 95 154 123 89
310 322 94 155 126 97
308 324 88 194 143 91
309 324 90 161 129 94
309 326 89 178 136 90
311 324 91 152 129 106
311 327 91 155 130 103
311 324 95 155 126 91
304 329 89 201 138 60
305 331 89 215 150 69
307 329 89 205 147 79
304 333 89 194 133 62
304 335 90 177 123 53
307 333 89 212 152 83
307 335 90 199 142 74
308 330 89 201 149 88
310 328 90 178 141 94
311 330 91 168 137 100
309 332 90 193 145 80
310 332 90 182 142 91
311 334 90 209 167 119
312 325 94 149 122 90
312 326 94 146 119 86
312 331 91 163 133 96
312 328 94 145 119 88
312 330 93 146 120 88
313 330 95 136 103 57
312 333 91 172 137 93
313 332 93 149 119 80
313 334 93 148 116 73
314 333 94 136 102 59
314 335 94 126 96 42
304 337 90 178 126 54
305 339 90 170 121 59
306 339 90 170 120 63
304 341 90 140 124 111
305 343 90 111 119 134
306 343 90 119 121 128
309 337 90 203 148 78
310 337 90 190 146 92
311 338 91 182 141 90
309 341 90 170 127 81
310 340 90 192 142 86
310 343 91 165 130 97
305 345 90 123 135 154
306 344 90 110 122 139
307 346 90 124 138 156
304 350 90 120 135 160
307 348 90 130 136 151
308 344 90 128 125 128
309 346 91 119 131 148
311 345 91 137 127 124
308 349 90 162 159 164
309 350 90 165 161 165
311 349 91 146 147 156
311 351 91 164 162 166
313 338 91 167 125 73
314 336 92 160 122 72
315 336 95 115 71 48
315 338 93 140 101 51
313 340 91 165 121 68
313 340 92 162 118 65
315 340 93 138 96 52
315 342 92 157 112 55
316 338 94 122 79 49
316 340 95 118 68 64
316 343 93 133 84 48
312 344 91 156 129 102
313 346 91 127 122 128
314 344 92 142 110 79
314 347 92 112 119 132
313 349 91 133 138 153
313 349 92 128 136 151
314 351 92 132 139 151
316 345 94 113 79 76
316 347 93 102 100 111
316 348 93 110 119 132
317 349 94 109 120 134
317 350 93 114 125 140
318 350 95 120 128 140
288 334 97 82 92 105
288 335 99 88 97 109
288 334 103 103 109 119
288 335 105 95 103 114
299 322 96 84 73 71
298 324 96 84 67 66
298 327 96 81 56 63
300 321 96 90 77 70
300 323 97 87 73 73
303 320 97 117 83 61
300 324 96 86 75 79
300 327 97 87 69 75
303 324 97 98 55 63
303 327 98 98 53 63
297 331 96 78 69 73
299 329 97 81 63 68
299 331 98 84 66 71
296 334 96 77 57 67
298 332 97 78 68 73
298 334 97 79 71 76
300 328 97 89 63 68
300 330 98 88 70 75
302 329 98 91 59 69
302 331 99 87 59 69
300 333 99 86 69 78
300 335 99 83 70 75
302 332 100 85 58 64
303 334 100 91 60 67
289 337 96 91 97 108
289 337 99 97 102 111
289 339 98 108 108 113
290 339 99 112 110 114
288 336 103 83 97 112
289 339 101 105 106 111
290 340 96 99 100 106
290 340 99 110 109 112
291 342 98 103 104 110
290 341 100 112 109 112
290 342 101 113 111 113
290 342 103 118 114 116
294 336 96 93 84 87
295 338 96 92 81 84
292 342 96 93 95 105
292 343 98 103 103 110
295 341 97 95 93 98
294 343 98 86 88 99
288 337 104 84 97 112
288 337 106 88 101 117
288 338 106 90 103 118
288 337 108 94 105 118
289 339 108 112 117 127
290 340 104 119 117 120
290 341 106 119 117 120
291 343 105 112 111 115
289 340 109 122 124 132
289 341 110 130 129 133
290 341 109 129 126 129
290 342 110 135 131 131
291 344 103 116 113 115
293 345 99 97 98 103
295 344 98 88 91 101
295 347 99 92 87 92
292 344 103 115 112 116
293 346 101 105 103 106
293 347 102 104 102 105
294 348 101 102 98 99
294 349 102 100 98 101
295 351 102 93 91 95
290 345 111 134 131 133
291 347 111 125 122 125
292 344 107 113 113 117
293 347 104 109 106 107
293 347 107 121 117 118
292 347 108 122 119 120
293 348 104 109 107 109
293 349 107 114 113 116
294 350 104 96 96 100
294 351 106 94 96 103
293 349 109 117 114 116
293 350 108 117 116 119
294 350 108 115 113 117
294 351 111 131 127 128
297 337 97 85 64 70
297 339 98 87 76 78
299 337 98 84 79 81
299 339 99 82 74 78
296 342 99 90 86 93
298 340 99 82 75 79
299 341 100 81 77 85
300 337 99 81 76 80
301 337 100 79 72 76
302 337 100 84 73 78
302 339 101 79 71 76
301 340 100 78 78 84
302 340 100 78 75 81
302 343 101 78 83 92
296 345 99 95 89 96
296 346 100 95 89 94
299 344 100 86 80 84
299 346 101 87 79 83
297 348 101 95 86 88
296 351 102 96 86 88
298 350 101 92 78 79
300 344 100 78 79 85
300 347 101 83 75 84
303 345 101 72 80 90
303 346 102 71 77 88
300 350 101 75 66 73
302 348 102 72 77 89
303 350 102 73 75 90
288 341 113 134 135 141
289 343 113 138 136 139
289 344 113 132 130 132
289 345 114 127 125 129
289 347 115 131 128 131
290 347 113 131 128 131
288 345 116 137 135 138
288 347 118 147 143 144
290 348 114 138 135 137
290 350 114 140 135 136
288 348 116 145 140 142
288 348 118 147 143 145
288 350 118 145 143 148
290 349 116 142 137 139
292 349 112 129 126 128
293 351 112 135 130 132
304 320 97 126 91 64
304 322 97 113 73 64
307 320 97 148 113 72
306 323 98 124 77 71
305 324 98 112 62 69
306 324 98 118 67 71
306 326 99 114 60 71
308 321 97 148 110 65
308 321 98 143 104 63
310 321 96 158 125 88
310 323 98 140 90 69
309 325 99 132 75 78
311 324 97 147 107 69
311 325 98 141 97 67
304 328 98 99 51 58
304 330 99 98 50 60
307 329 99 113 61 68
306 330 100 106 53 63
305 332 100 101 51 60
305 335 100 98 51 63
307 332 101 107 59 65
308 328 99 124 73 80
308 330 100 119 65 74
310 328 100 132 74 86
310 331 101 125 73 83
309 332 101 117 65 75
309 334 102 114 64 76
310 333 102 122 71 81
312 324 96 152 117 74
313 327 96 143 104 64
313 327 98 135 81 66
312 329 99 133 73 80
313 331 99 134 72 84
314 330 99 133 73 82
312 331 100 133 76 90
315 332 96 124 77 56
315 332 98 130 74 82
315 334 98 128 77 82
313 333 101 136 88 94
313 334 102 135 88 95
314 334 101 136 87 95
315 335 102 133 86 95
316 334 99 138 95 99
304 336 100 89 59 66
304 339 101 86 70 75
307 336 101 100 61 71
307 338 102 100 63 73
304 340 102 87 70 75
304 343 102 75 65 78
307 340 103 94 56 66
307 342 103 89 65 75
309 336 102 111 68 78
309 339 103 102 62 72
310 338 103 109 64 75
309 340 103 102 63 70
309 341 104 100 61 70
310 341 104 103 62 75
311 342 104 107 66 79
305 345 102 74 69 80
305 346 103 77 77 87
307 345 103 80 65 78
305 348 103 71 78 91
306 348 103 75 78 91
306 348 104 77 78 89
306 351 104 73 80 94
308 345 104 89 70 83
308 347 105 79 66 79
310 345 105 94 68 80
311 347 105 90 69 84
309 349 105 80 75 89
309 350 106 74 81 98
311 349 106 84 77 93
312 336 103 127 71 83
315 336 101 133 89 96
315 337 103 136 90 99
316 337 96 119 61 70
317 337 98 127 77 80
317 338 97 125 75 82
317 339 99 136 95 98
316 337 102 136 94 98
316 338 102 135 91 95
317 340 97 124 69 81
317 342 96 113 59 69
318 341 99 132 89 97
317 340 100 135 97 97
317 341 102 133 91 95
318 341 101 135 100 100
318 342 102 135 100 101
313 338 104 127 73 82
312 341 104 118 63 75
312 343 105 113 58 71
315 340 104 128 76 87
315 342 105 130 84 91
316 342 104 134 95 99
316 343 106 130 82 91
318 345 96 114 65 82
319 345 99 127 84 90
318 346 99 122 87 95
318 344 101 137 100 102
318 344 103 132 91 97
319 346 101 129 94 100
319 347 103 126 94 104
319 349 97 112 120 132
318 351 96 132 136 144
319 351 98 124 131 142
313 344 105 117 57 71
312 347 106 97 75 89
315 345 106 122 60 78
312 349 106 82 79 94
313 350 106 86 94 110
315 349 106 98 99 116
315 351 107 106 120 135
317 345 106 128 78 90
318 344 105 133 94 101
319 346 104 134 92 99
316 349 107 92 108 124
317 350 106 93 115 134
318 348 106 112 97 108
319 350 106 102 122 142
289 353 81 151 150 156
289 355 81 101 114 135
291 353 82 137 138 145
291 354 82 119 125 137
289 356 80 101 113 139
288 359 81 117 125 143
291 356 82 101 114 135
291 358 82 94 105 132
292 352 84 112 118 128
293 354 84 68 91 113
294 352 86 86 101 120
294 354 85 20 64 93
295 355 86 87 101 126
293 356 84 79 98 123
294 356 86 88 102 126
294 359 85 97 111 133
288 361 81 96 109 129
289 362 81 108 118 137
291 360 82 114 123 142
291 362 82 149 150 160
289 364 82 129 138 153
289 366 82 75 104 136
291 364 82 130 137 151
290 367 83 76 104 140
292 362 83 144 145 153
293 362 84 119 129 145
295 361 85 91 108 132
295 362 86 84 106 132
292 365 84 80 107 135
292 367 84 63 102 134
294 364 86 83 107 133
294 366 86 59 95 125
296 353 87 132 135 144
296 359 87 87 104 128
296 354 88 134 138 149
298 353 88 161 157 162
298 355 89 115 127 147
297 357 88 94 110 135
299 356 89 91 109 138
299 358 89 91 107 134
301 353 90 135 143 159
301 355 90 103 121 148
302 355 90 110 125 154
301 357 89 100 113 140
301 359 89 96 112 138
303 357 90 97 113 143
296 361 87 84 106 131
296 365 87 76 102 127
297 360 88 94 112 134
298 361 88 95 113 135
299 362 89 96 114 136
298 364 88 75 103 131
299 366 89 54 96 128
300 362 89 93 113 137
303 360 90 93 112 138
303 363 90 81 109 137
300 367 89 78 110 138
302 365 90 63 98 130
302 367 90 72 107 135
289 369 82 75 107 138
290 369 83 90 114 138
291 370 83 90 116 141
288 373 82 65 99 128
288 375 82 62 96 126
290 373 83 58 93 123
290 375 83 53 87 117
293 369 85 80 114 144
294 369 85 85 116 144
295 369 87 87 111 135
295 370 87 84 109 135
292 372 84 59 96 128
292 375 84 48 88 119
294 373 85 64 102 132
294 375 85 63 99 130
289 376 82 64 95 124
289 378 82 77 99 125
291 377 82 58 88 118
291 379 83 67 92 117
288 382 80 68 96 120
290 380 82 84 103 123
290 382 82 80 103 126
292 378 83 59 89 116
293 378 84 60 93 122
295 376 86 63 96 127
295 378 85 60 92 122
293 380 83 72 98 121
293 383 83 92 105 119
295 380 84 64 89 114
296 368 87 70 99 127
297 372 87 41 82 118
297 374 87 53 90 124
297 371 88 52 91 124
299 369 89 85 115 143
297 373 88 61 96 126
299 373 89 69 104 134
299 375 89 77 109 136
301 369 90 93 120 146
301 371 90 73 108 139
302 370 90 85 115 142
301 372 89 57 98 134
301 375 89 73 106 135
303 372 90 64 101 135
303 374 90 78 112 141
297 377 87 64 93 122
297 378 87 54 87 116
296 380 86 40 79 112
296 383 84 58 86 110
297 383 87 74 94 113
299 376 88 70 102 129
299 378 88 78 103 128
297 382 88 67 89 111
299 381 89 50 77 108
300 377 89 79 105 131
301 379 89 72 96 120
302 378 89 75 102 127
300 380 89 55 82 111
300 383 88 65 90 116
303 381 89 66 94 120
303 383 89 109 121 136
304 354 90 142 148 161
307 352 90 167 166 173
304 356 90 101 118 149
305 358 90 84 107 143
306 358 90 87 110 143
309 352 90 172 168 173
309 355 90 143 152 169
310 354 91 158 160 169
308 357 90 96 114 151
309 358 91 92 113 148
310 358 91 89 112 147
305 360 90 94 114 141
306 360 90 96 115 142
306 363 90 83 112 142
305 365 90 67 102 135
306 365 90 60 101 135
307 367 90 63 104 137
309 361 91 100 120 147
309 363 90 81 113 145
310 362 91 102 124 151
309 364 90 71 109 144
308 367 91 75 114 146
311 365 91 58 102 141
312 353 91 162 163 171
313 355 91 95 116 146
314 355 92 111 126 152
313 357 91 94 115 149
313 358 92 88 111 146
314 358 92 88 110 142
316 353 92 119 127 144
316 354 93 132 138 150
318 353 94 146 146 151
318 354 94 146 146 151
316 356 92 135 145 161
317 358 93 93 111 137
319 356 94 128 134 145
319 358 94 92 109 131
312 363 91 88 117 149
312 363 92 90 118 149
315 361 92 95 120 147
312 365 91 57 100 138
313 365 92 68 105 138
314 365 92 54 95 131
315 367 92 50 99 136
316 363 92 84 112 142
319 361 93 84 108 133
319 363 93 79 107 137
317 365 93 48 97 139
317 367 93 73 119 156
319 365 94 65 102 139
319 367 94 67 110 150
304 371 90 68 104 137
307 369 90 79 112 140
304 372 90 65 100 134
304 375 90 74 107 135
307 372 90 67 104 134
306 375 91 98 123 147
308 369 91 86 118 147
309 371 91 74 111 143
310 371 91 72 108 140
309 373 91 75 107 137
310 373 91 70 105 137
310 375 92 79 114 143
305 376 90 66 102 131
305 379 91 50 88 122
306 379 91 53 92 125
305 380 91 45 84 120
305 383 90 105 125 150
306 382 91 89 117 146
308 377 91 71 106 136
309 377 92 88 118 146
310 377 92 93 123 152
311 379 92 62 102 138
309 383 91 104 123 144
310 381 92 58 94 132
311 383 92 88 112 139
312 369 92 91 126 155
313 371 92 71 113 148
314 371 92 62 110 148
313 373 92 68 111 149
314 372 92 49 99 142
314 374 93 65 109 144
316 369 92 69 116 155
316 371 92 65 114 153
319 368 93 79 118 155
319 370 94 70 113 148
316 374 93 55 102 140
319 372 93 50 100 140
319 375 93 101 129 158
313 377 93 77 113 145
313 379 93 67 104 138
314 379 93 55 98 133
312 381 93 71 100 132
313 382 92 81 105 132
315 380 93 52 98 137
316 376 93 77 113 144
317 378 93 72 110 143
319 377 94 99 129 158
319 379 94 67 108 144
316 383 93 109 130 155
318 381 94 63 98 139
319 383 94 115 134 164
295 353 102 92 85 87
295 354 103 90 90 94
295 357 103 81 81 87
294 352 107 98 101 109
295 355 104 95 93 96
295 355 107 88 95 105
294 352 111 132 128 129
295 355 108 95 102 112
295 354 111 117 116 120
295 357 105 81 84 93
295 358 105 85 87 93
295 357 108 89 95 104
295 358 108 89 94 102
295 359 110 88 97 109
296 352 102 96 84 84
297 355 101 89 72 66
298 355 101 91 73 69
297 356 101 92 74 66
296 358 103 97 86 82
298 357 101 91 72 65
298 359 102 92 68 56
300 353 102 86 67 67
301 355 102 87 66 65
303 353 103 75 70 82
303 355 103 74 60 74
301 357 103 89 65 58
302 356 103 81 62 67
296 358 104 95 89 89
296 359 108 87 91 100
302 358 104 80 59 60
298 360 103 98 70 43
297 361 104 107 90 74
297 361 107 102 91 84
299 361 104 97 70 47
298 362 106 113 94 73
296 361 108 93 94 98
296 361 110 94 98 105
297 362 110 102 99 98
298 363 110 102 91 84
299 365 107 99 73 47
299 364 109 111 91 70
298 365 111 110 95 82
299 366 110 112 91 69
301 360 104 90 59 44
301 363 105 90 62 47
303 361 105 70 58 66
303 363 106 75 59 59
301 364 106 94 70 58
302 365 106 84 62 52
303 366 107 82 64 56
301 367 108 91 65 41
303 367 108 85 65 52
290 352 116 141 138 140
290 352 118 131 131 136
290 354 118 142 139 142
290 356 119 141 138 140
293 352 112 133 129 131
292 353 114 133 130 132
293 354 115 137 134 136
294 355 112 121 120 123
292 355 116 140 137 140
295 356 113 118 119 124
294 357 115 133 132 137
294 358 115 126 127 134
292 356 117 137 135 139
292 356 118 137 135 139
292 358 118 139 137 140
294 357 116 138 135 139
288 352 121 140 138 141
288 352 123 141 138 142
288 354 122 139 135 137
289 355 123 138 134 137
288 355 124 122 118 118
288 355 127 137 134 137
290 356 121 126 125 129
290 357 123 120 119 123
290 358 122 130 128 132
289 356 124 136 132 134
288 357 127 139 136 137
289 358 127 143 140 142
290 359 125 140 137 138
292 360 119 144 141 143
295 360 117 111 117 127
295 361 118 121 126 136
294 363 119 98 108 121
295 365 119 89 107 126
291 361 123 135 132 134
291 361 125 137 135 138
291 362 125 135 134 137
291 362 126 132 131 135
291 365 126 134 134 139
292 361 121 136 134 136
293 362 121 136 135 139
292 363 123 131 129 133
292 363 125 135 134 139
293 366 123 79 94 109
295 365 120 92 109 128
295 367 121 78 99 119
292 364 124 127 127 132
292 365 126 128 128 134
292 366 126 127 127 132
296 359 112 94 103 116
296 360 115 106 116 129
297 363 112 103 105 111
297 363 114 85 100 116
297 364 113 99 103 110
297 366 115 96 107 120
298 365 114 101 105 112
298 366 114 105 106 111
296 365 117 92 106 122
297 366 116 94 108 124
296 367 118 95 111 127
299 368 111 113 93 71
300 369 111 111 88 64
302 369 109 90 66 44
302 370 111 92 68 43
294 368 123 88 106 126
292 368 127 141 139 144
294 368 124 93 109 127
294 369 126 99 110 124
294 371 126 96 109 125
295 373 127 115 126 141
299 369 113 104 101 101
299 369 115 93 102 113
297 369 118 96 112 130
299 369 116 88 102 119
298 370 118 93 109 127
299 372 118 87 105 124
300 370 112 107 93 81
300 370 115 86 97 109
300 370 116 82 97 114
301 373 114 81 83 90
303 372 112 88 67 52
302 374 115 79 81 91
300 372 117 86 103 122
300 374 116 79 99 118
301 375 117 84 101 120
302 375 116 74 86 102
297 369 120 83 104 124
297 371 121 74 98 121
297 371 123 81 102 123
296 371 125 104 117 132
299 372 120 79 102 124
298 373 123 91 108 127
298 375 123 120 125 135
296 372 125 105 117 132
296 373 126 117 127 140
296 375 126 101 113 128
298 375 124 128 132 141
303 376 115 77 75 81
301 376 119 85 103 121
302 377 116 81 90 102
303 378 117 86 95 107
302 379 119 89 102 118
303 381 118 84 96 111
299 376 123 121 126 136
297 376 127 102 118 135
298 377 124 122 127 137
299 378 124 113 120 131
298 379 126 114 122 135
299 380 127 106 117 133
301 377 120 92 107 123
301 378 121 105 114 127
301 378 122 111 119 131
300 380 123 101 109 122
302 381 120 81 93 111
302 382 121 77 90 105
302 382 123 83 94 109
300 381 125 92 105 121
300 381 127 92 105 121
300 383 127 97 108 122
302 383 125 93 102 116
305 352 104 71 76 91
306 353 104 73 79 93
306 355 105 66 73 91
305 356 104 65 71 87
304 359 105 72 62 75
307 356 105 69 78 95
306 358 106 68 80 95
308 352 106 69 84 98
308 355 106 74 86 101
310 353 106 73 89 105
310 355 107 83 95 109
308 357 106 72 86 102
309 358 107 76 91 107
309 359 108 69 86 103
310 359 108 75 90 106
305 360 105 68 69 84
304 363 107 70 61 70
306 361 107 60 77 94
306 362 108 63 79 94
304 365 108 78 69 73
305 366 108 74 71 79
307 364 108 63 80 96
306 367 110 72 75 87
308 361 108 64 81 99
309 362 108 57 79 98
311 360 109 79 93 109
311 363 109 66 84 102
308 365 110 65 83 101
309 366 110 63 82 100
311 364 110 61 80 99
311 367 111 59 81 101
319 354 96 140 140 144
313 352 107 85 101 117
313 353 108 96 107 121
314 352 108 118 126 138
314 355 109 110 116 126
312 357 108 84 96 110
312 359 109 80 93 109
315 356 109 111 117 128
315 358 110 105 113 125
318 353 107 140 142 150
316 353 108 126 132 142
317 355 108 138 140 147
319 354 108 146 145 151
316 358 109 115 123 135
318 356 109 141 142 149
319 358 109 139 141 148
312 361 109 80 94 109
312 363 110 77 93 110
314 361 110 92 104 119
314 363 111 80 95 111
313 365 111 78 94 112
316 361 111 99 111 127
317 362 111 94 109 126
319 361 111 113 124 139
311 367 112 63 85 104
313 367 113 73 92 112
314 367 113 73 92 111
316 364 112 84 100 117
316 367 113 81 100 120
319 364 112 85 108 131
319 366 113 83 106 129
305 368 110 80 76 80
305 371 111 73 62 62
307 369 110 75 79 87
307 371 111 76 75 81
306 371 112 76 70 72
305 372 112 75 64 62
304 375 114 80 71 71
307 372 112 75 76 82
306 375 114 76 65 64
308 370 112 66 81 95
310 368 112 59 81 100
310 370 112 62 81 99
308 372 112 74 81 91
308 374 113 77 81 88
309 375 115 71 84 98
310 374 114 70 87 104
304 376 115 79 72 73
304 379 115 81 74 79
307 376 115 75 72 72
304 379 116 83 82 90
304 381 116 79 78 84
305 382 117 76 84 96
306 380 116 74 70 73
306 383 117 71 78 88
309 376 115 71 81 92
308 379 116 74 75 79
311 377 116 56 79 100
311 379 117 48 74 96
309 381 117 63 73 86
310 380 117 55 73 91
310 383 117 54 72 90
312 368 113 62 85 107
312 370 114 60 84 106
315 368 113 70 90 111
315 371 114 76 95 116
313 373 115 59 85 108
314 372 115 68 90 113
313 375 116 49 77 102
316 369 113 69 92 113
316 371 115 68 92 116
319 369 113 59 91 120
319 370 114 71 98 126
317 373 115 38 75 107
316 375 116 44 78 106
319 375 116 70 98 124
312 378 117 50 76 99
314 376 117 48 78 103
315 378 117 46 80 108
312 380 118 48 76 99
313 382 118 42 74 99
315 380 118 54 82 108
315 383 119 47 77 103
317 377 117 56 87 116
318 376 116 64 94 121
318 378 117 52 87 116
316 380 118 45 80 108
316 382 119 48 80 106
319 380 119 56 87 117
315 383 120 52 81 106
319 382 120 50 84 114
320 351 99 125 130 140
320 348 103 110 102 116
320 351 101 133 140 151
