ply
format ascii 1.0
comment Created by Open3D
element vertex 2073
property double x
property double y
property double z
property uchar red
property uchar green
property uchar blue
end_header
424 655 148 83 73 64
424 655 152 91 79 67
423 656 128 78 99 119
425 657 128 78 98 116
427 657 129 73 97 119
428 656 129 87 106 126
429 656 130 89 111 133
429 659 128 106 115 127
431 656 130 123 136 153
431 659 129 128 131 138
430 660 128 115 120 128
431 661 129 123 128 136
426 656 141 58 67 81
427 656 143 64 66 70
429 657 141 57 68 80
429 657 143 67 68 72
431 656 141 57 70 84
431 657 143 64 68 74
423 656 157 102 86 69
425 656 145 73 68 65
427 656 144 64 64 66
426 657 147 84 73 64
425 656 150 90 78 66
427 656 149 86 75 65
426 657 151 91 79 67
429 657 144 73 68 67
429 657 147 85 74 65
430 658 144 71 68 68
430 658 147 85 74 65
428 657 148 87 75 65
429 658 148 87 75 65
429 658 151 95 81 68
431 659 148 89 78 68
431 659 150 94 80 67
425 656 152 93 79 67
425 656 155 98 83 69
427 657 152 95 81 68
427 658 152 96 82 69
424 656 157 103 86 69
424 656 158 105 87 69
426 657 156 102 86 70
427 658 157 106 88 69
427 659 159 111 91 70
429 659 153 101 85 70
429 659 154 103 87 70
428 658 157 106 88 69
428 659 158 110 90 70
430 660 152 102 86 69
430 660 155 106 88 70
429 660 157 109 90 70
430 661 156 109 90 71
430 660 159 115 94 72
431 662 158 113 92 70
432 651 135 125 127 134
432 655 131 117 131 149
432 652 132 113 126 143
433 653 133 119 128 142
433 654 132 120 132 148
435 653 135 133 136 143
435 654 133 126 133 145
436 655 132 125 134 148
437 654 135 151 150 155
432 650 137 160 157 161
432 651 138 144 144 150
432 652 139 135 135 141
432 654 139 126 126 132
434 653 136 133 136 144
435 654 136 147 149 156
435 654 138 146 147 153
437 654 136 162 161 167
437 655 138 154 153 159
433 656 130 133 143 157
432 658 130 136 140 149
434 657 130 130 139 152
434 658 130 136 143 154
432 660 129 126 130 138
432 662 129 110 117 127
434 660 129 121 128 138
435 661 130 132 137 147
436 656 131 125 136 152
437 658 131 112 128 150
439 659 131 95 117 143
438 656 133 123 130 141
438 656 135 143 143 147
439 658 132 106 121 142
437 661 130 107 125 146
437 663 130 117 126 139
439 661 130 89 113 141
439 663 130 115 130 148
435 656 139 114 117 125
433 656 140 82 88 99
432 658 142 63 70 79
434 657 140 69 79 91
435 659 140 45 61 77
434 660 142 65 69 75
436 656 139 125 127 135
436 658 139 84 91 103
439 656 136 150 150 155
438 657 139 116 120 131
439 658 139 107 113 123
438 659 140 71 81 94
436 660 142 60 65 73
437 661 143 66 67 69
439 660 141 41 59 77
438 662 143 70 68 68
433 665 128 98 110 123
435 664 129 110 117 127
436 664 129 111 118 129
437 664 130 118 127 139
437 667 128 75 95 114
439 664 130 111 123 138
439 666 129 118 127 140
438 669 128 70 94 116
439 671 128 86 102 118
440 658 132 103 117 137
440 658 134 105 112 122
442 659 133 74 90 106
440 660 131 90 112 139
440 662 131 88 111 138
442 662 131 84 107 136
442 660 132 83 102 124
443 661 133 85 102 121
443 663 132 82 105 135
444 661 135 110 114 122
444 663 132 74 100 132
446 661 135 120 121 124
447 662 135 122 122 126
440 658 137 135 139 149
440 659 138 100 113 128
443 659 136 112 119 129
443 660 136 124 128 136
443 660 139 59 93 120
441 661 140 46 67 86
440 662 143 64 63 65
442 660 140 62 84 106
443 662 141 35 57 78
444 660 136 128 130 137
445 661 137 116 127 141
445 661 139 87 109 131
447 662 136 129 128 130
446 662 139 70 98 123
444 662 140 75 93 112
445 663 141 45 68 91
440 664 130 106 121 140
440 666 129 116 126 139
441 667 130 66 96 123
443 665 131 89 110 141
443 667 130 88 108 134
441 668 129 72 99 124
440 671 128 74 95 114
442 668 130 75 101 126
442 671 129 82 101 121
444 665 131 96 116 146
444 664 132 77 103 137
445 667 132 87 109 137
447 664 133 70 97 130
446 667 132 67 95 133
444 668 131 125 134 150
444 670 130 114 124 140
445 671 131 90 106 127
447 668 132 64 92 128
446 671 132 106 118 138
442 664 143 77 71 67
444 664 143 75 72 71
446 664 141 37 62 90
446 665 143 72 68 70
432 658 144 69 69 73
432 659 146 83 73 65
432 659 148 87 76 66
434 660 144 76 71 68
435 661 145 83 75 69
435 661 146 88 77 68
432 660 150 97 83 69
434 660 148 90 78 68
435 661 149 98 84 70
435 662 149 99 83 68
437 661 144 74 70 69
436 662 146 91 80 69
438 662 145 86 77 69
438 663 146 94 81 69
436 662 149 99 84 68
436 662 150 101 84 67
437 663 151 103 85 67
432 660 152 102 86 70
433 661 153 103 87 69
432 662 155 108 89 69
434 662 153 104 86 68
434 662 155 107 88 68
432 661 156 109 90 70
433 663 157 112 92 71
433 663 158 115 94 72
434 663 158 116 94 72
436 663 154 109 90 69
438 664 150 102 84 65
433 664 159 118 95 71
434 664 159 117 95 70
437 664 152 104 86 66
437 664 155 111 90 68
438 665 153 108 88 65
438 665 155 112 91 67
436 664 156 113 92 70
437 665 157 114 92 67
436 666 159 119 95 69
438 666 156 114 92 67
439 667 157 117 93 67
439 667 159 119 97 72
440 663 145 91 79 68
441 664 145 93 79 66
441 665 146 98 82 65
443 664 144 90 79 70
443 665 146 100 82 64
440 665 149 103 85 64
440 665 151 108 87 64
442 665 148 102 83 61
443 666 149 106 85 61
443 667 150 110 88 64
444 666 145 100 84 68
444 666 147 104 84 61
446 666 145 98 84 70
446 667 146 106 88 68
444 667 150 110 88 62
447 668 146 106 87 67
445 668 148 109 88 64
445 668 151 113 88 61
446 669 148 112 90 67
447 670 148 112 89 67
446 670 151 114 89 63
440 665 153 110 88 64
441 667 153 116 94 70
441 667 154 118 95 71
443 667 152 115 92 68
443 668 152 116 92 67
442 669 155 119 94 69
440 668 157 119 96 70
440 668 159 117 94 70
442 669 156 118 93 68
443 670 156 117 92 65
443 670 159 117 94 67
444 669 152 114 89 63
444 670 153 115 90 66
444 670 155 116 91 64
446 671 152 114 87 60
444 671 156 115 90 64
444 671 159 114 90 66
417 652 160 102 85 68
417 652 163 109 89 66
418 653 161 105 87 68
419 654 160 104 86 67
416 652 164 112 91 68
416 653 166 117 94 69
417 654 167 118 95 70
418 655 165 117 94 70
418 655 166 118 95 70
420 654 161 109 90 70
420 655 162 111 91 69
422 655 161 109 90 69
416 655 169 119 95 68
418 655 168 118 95 69
422 656 161 110 90 69
422 656 163 115 93 70
421 656 164 117 95 71
420 657 166 119 95 67
421 658 167 120 95 66
423 657 165 117 94 69
422 658 167 120 95 68
423 660 167 122 98 71
417 656 171 122 97 70
419 656 168 120 96 69
419 657 170 121 96 67
419 659 171 120 95 65
417 657 172 121 97 69
416 658 175 120 95 66
418 658 173 120 95 67
418 658 174 120 95 68
419 660 174 120 96 68
420 659 169 121 95 67
420 659 170 121 95 68
422 659 169 122 97 68
421 660 171 121 96 71
422 660 170 122 97 69
420 660 172 121 95 70
420 660 174 121 96 70
421 661 175 113 90 63
423 661 172 122 96 68
422 662 174 113 90 63
423 663 175 92 73 52
424 657 162 112 91 69
425 658 162 112 91 68
427 658 160 111 91 70
426 659 163 115 94 70
424 659 165 119 96 70
426 659 164 117 95 71
424 660 167 122 98 72
426 660 165 118 96 72
426 661 166 121 98 73
428 659 160 113 93 71
429 660 161 117 96 74
428 661 163 119 97 72
430 661 160 117 95 72
431 662 161 119 96 72
431 663 162 121 98 72
428 661 166 121 97 71
428 662 166 122 97 70
429 663 167 122 98 71
431 663 165 122 98 71
424 661 168 121 97 71
424 661 171 121 95 69
426 661 168 122 98 70
427 663 169 122 97 70
427 663 170 121 97 69
425 662 172 120 95 66
425 663 174 99 77 52
428 663 168 122 98 70
431 664 164 122 99 73
431 664 167 121 97 70
425 664 175 92 82 76
426 664 174 88 72 57
427 665 175 100 98 100
429 664 169 121 97 72
429 665 171 113 91 67
431 665 169 120 97 71
430 666 171 104 83 60
428 665 172 105 84 63
429 666 173 80 68 57
430 666 172 89 71 51
431 667 173 102 106 114
429 669 175 113 141 172
430 668 173 129 135 146
430 669 174 169 175 188
430 670 174 188 189 199
431 671 174 190 191 202
417 659 176 119 95 69
418 659 176 118 94 69
417 660 179 92 72 49
419 661 176 112 89 63
418 661 179 78 68 59
416 660 181 78 74 72
416 661 182 109 125 143
417 662 182 148 158 172
418 662 181 143 146 153
418 663 182 154 165 181
421 662 176 100 79 56
420 663 178 90 85 85
422 663 177 73 69 69
416 664 183 79 113 159
418 664 181 146 161 179
418 665 182 126 150 177
418 667 183 62 99 156
417 669 183 131 149 180
419 669 181 98 116 163
419 669 182 95 115 161
418 671 182 125 143 182
423 664 176 93 91 91
422 665 178 154 161 175
423 666 179 168 171 181
421 664 180 109 131 155
421 666 181 129 147 169
422 667 180 169 176 190
423 671 178 159 169 185
421 668 181 125 145 171
421 670 180 119 135 166
422 670 180 145 157 177
416 667 184 76 105 160
416 670 184 120 138 185
425 665 176 149 149 155
424 667 178 164 167 177
426 667 177 169 172 182
424 668 179 184 184 193
425 671 177 128 148 173
426 668 177 177 179 190
427 669 177 178 181 193
427 671 176 152 171 198
428 671 176 136 160 190
432 664 161 119 96 70
432 664 163 121 98 72
434 665 160 117 95 70
435 666 161 120 96 70
435 667 163 123 98 71
433 665 164 121 97 69
433 666 165 122 97 69
433 667 167 122 97 67
435 667 164 122 98 71
435 667 166 121 97 70
436 666 161 121 97 71
436 667 162 123 98 70
436 667 165 122 98 72
438 668 160 119 96 69
438 668 162 121 96 70
439 670 163 118 95 70
437 669 164 121 98 74
436 669 167 107 86 63
438 669 165 117 94 68
439 670 165 110 87 61
439 670 166 94 76 58
432 666 169 116 92 67
432 666 170 110 88 64
434 667 169 107 87 64
434 668 168 110 89 67
434 668 170 77 69 69
434 670 171 92 120 149
432 668 172 100 108 122
432 670 173 138 149 169
434 670 172 98 124 153
436 670 168 77 71 69
437 671 169 64 98 133
439 671 168 89 106 126
440 669 162 118 95 69
440 670 163 117 94 69
442 670 160 118 94 67
442 671 162 115 92 67
441 671 164 106 86 65
423 702 159 178 198 225
424 703 158 165 190 220
427 701 159 177 196 222
427 702 159 139 175 213
428 702 159 144 177 211
430 701 159 149 183 219
431 703 158 145 178 220
441 673 128 59 84 106
443 672 129 64 88 111
442 675 128 69 92 116
442 677 128 97 115 135
443 678 128 111 129 149
445 672 131 88 105 125
445 674 130 100 114 131
446 673 131 104 118 136
447 672 132 102 116 138
446 675 132 108 120 138
444 676 129 64 92 118
445 677 130 89 109 133
445 678 130 99 121 145
446 679 131 102 125 150
443 680 128 110 134 160
443 684 128 110 126 154
443 686 129 127 149 175
445 680 129 112 137 162
444 683 128 94 120 151
445 683 130 123 142 166
446 682 131 114 135 160
446 683 132 99 124 156
444 684 128 104 125 151
445 684 130 112 136 163
444 687 129 147 167 192
445 686 131 127 151 176
446 684 132 98 124 154
447 685 133 109 133 171
446 687 133 82 114 167
447 687 135 106 128 181
447 672 153 115 88 66
447 672 155 115 88 64
444 672 158 114 90 65
446 672 156 114 89 63
446 673 158 107 87 65
447 674 159 90 78 69
444 687 159 193 200 223
447 684 159 143 159 210
446 687 158 170 175 215
437 695 128 124 145 186
438 694 128 157 173 199
439 695 129 74 105 168
433 701 128 151 170 195
433 702 129 98 124 183
434 701 128 149 166 188
434 701 130 84 117 172
434 702 131 119 130 191
434 703 132 205 207 219
435 703 133 165 177 208
437 696 129 60 95 167
436 699 128 164 184 206
437 699 130 149 175 214
438 697 130 136 161 186
438 698 130 148 171 198
439 697 132 103 139 188
439 698 132 108 138 197
439 698 135 125 142 185
436 700 131 80 111 187
437 700 132 107 130 193
437 701 135 164 185 218
437 702 135 193 206 230
438 701 135 159 183 221
436 703 136 142 162 203
436 703 138 154 179 219
437 703 139 161 180 224
439 701 137 140 161 217
439 701 138 156 171 219
436 703 140 153 175 218
438 701 140 183 197 233
438 702 140 164 184 230
441 688 128 149 151 187
441 690 129 152 151 187
443 688 129 155 169 194
442 690 130 156 165 197
443 691 131 140 157 194
441 692 129 144 149 191
441 693 131 145 153 191
441 694 131 134 143 187
441 694 132 139 150 191
442 693 132 157 168 202
443 693 134 170 187 218
442 694 134 144 157 200
444 688 130 140 161 187
445 688 132 89 121 176
444 690 132 95 121 189
444 691 134 136 165 196
446 688 132 76 108 169
446 689 135 129 150 197
444 692 134 183 200 224
443 694 136 131 152 209
443 695 139 177 193 228
447 689 137 90 118 186
446 691 137 82 115 191
447 690 138 85 106 194
447 691 140 200 210 238
444 693 136 110 131 200
445 693 137 137 156 209
444 694 137 154 175 215
445 694 139 133 143 207
444 695 140 222 230 247
444 695 142 212 225 249
446 692 140 161 172 220
447 692 141 165 183 222
447 692 143 160 188 231
440 696 133 125 140 189
441 696 134 137 141 194
440 698 135 124 134 179
440 698 136 143 145 192
440 699 138 155 158 208
442 696 136 161 172 203
442 696 138 120 142 201
440 699 140 175 176 219
441 699 141 174 184 228
442 697 140 145 163 214
443 697 141 191 206 238
442 698 141 152 166 222
440 700 140 187 191 226
444 696 141 186 202 231
439 692 159 150 164 204
438 694 158 108 126 186
439 695 158 84 112 183
439 699 151 184 203 238
437 702 146 160 171 220
438 701 145 172 190 230
438 701 147 140 172 222
438 702 144 165 170 220
437 701 150 183 196 230
437 702 149 152 165 213
437 702 150 149 169 211
439 700 148 141 170 229
438 701 150 193 204 231
432 703 157 162 171 226
433 702 159 180 190 236
435 701 158 89 110 198
435 702 157 134 156 217
435 702 158 122 137 212
438 699 152 169 195 227
438 698 154 93 132 199
439 698 155 83 120 198
437 698 158 82 113 178
438 697 156 86 118 198
439 697 157 91 121 198
438 698 156 81 114 193
437 700 153 135 169 211
437 700 155 63 90 171
436 703 152 154 170 213
436 702 155 138 155 213
438 700 154 95 133 192
437 700 156 92 110 180
437 700 158 71 110 177
442 695 151 167 194 244
447 691 151 174 195 229
445 695 145 196 213 240
445 695 147 191 207 235
446 693 146 133 157 218
446 694 145 195 210 240
445 693 151 133 138 210
445 695 148 190 206 238
445 694 150 114 138 211
447 692 149 141 149 205
446 693 150 148 153 212
441 689 159 62 101 185
441 690 159 65 99 183
443 688 159 110 132 194
443 691 157 92 129 201
440 695 154 140 156 217
441 695 155 141 158 217
443 693 155 138 148 208
443 694 153 122 138 210
441 692 157 145 166 207
440 693 158 149 162 199
441 694 156 136 147 208
445 691 153 156 187 229
447 689 154 158 174 227
447 690 153 121 150 212
446 691 154 95 139 206
444 688 158 147 161 204
444 690 157 69 106 192
446 688 157 125 140 212
446 688 158 151 155 210
445 692 153 167 186 228
444 693 154 136 150 209
444 692 156 86 120 201
441 699 144 179 192 233
441 698 147 153 177 227
442 697 146 211 222 247
443 697 147 214 227 253
441 697 149 157 176 239
441 697 151 96 122 216
441 698 148 135 153 223
442 697 148 173 189 236
442 696 150 175 200 245
440 700 147 182 201 241
444 696 148 187 204 239
441 696 152 110 134 217
416 683 175 112 137 187
416 684 173 103 141 187
417 684 174 116 139 189
417 686 172 113 144 189
418 684 175 134 152 200
418 686 172 108 131 183
419 687 172 105 128 183
421 685 174 112 142 205
421 686 173 119 142 201
422 685 175 102 133 209
423 687 173 169 192 230
427 674 175 93 123 178
427 677 175 94 125 177
427 679 174 133 148 186
429 672 175 182 192 210
428 675 174 79 112 183
431 673 173 200 204 218
430 674 173 151 165 197
430 674 174 133 150 189
428 676 174 63 104 181
428 679 173 94 119 180
428 679 174 121 138 185
431 676 173 102 128 189
426 680 175 122 138 183
427 681 175 109 128 182
427 683 174 93 122 185
425 685 175 131 155 214
424 687 174 186 207 239
426 685 174 101 125 201
426 687 173 114 139 211
427 686 174 89 119 200
431 681 171 146 165 205
431 683 170 128 143 196
429 680 173 114 134 185
428 683 173 110 138 189
428 683 174 94 124 184
430 684 171 110 134 188
431 685 171 117 139 192
431 686 171 118 138 189
429 684 172 128 152 194
428 686 172 143 163 206
429 687 172 145 167 206
417 673 182 141 158 200
417 674 182 131 146 199
418 673 182 137 156 196
419 675 181 117 149 194
417 676 181 140 166 211
416 678 181 141 172 210
418 676 181 136 163 207
419 677 181 138 169 207
419 679 180 136 171 211
423 673 178 112 129 177
423 674 179 107 126 172
420 673 180 90 111 170
420 674 181 92 121 175
421 676 179 115 143 187
421 679 179 116 137 198
423 677 178 130 153 187
423 678 178 128 149 189
421 677 180 124 153 197
417 680 179 129 158 210
416 683 176 118 138 192
418 680 179 128 160 209
419 681 179 137 168 211
419 683 176 157 181 218
418 684 176 155 176 215
421 680 179 111 135 201
421 682 177 155 182 222
422 681 177 142 163 214
423 680 178 116 135 194
423 682 177 121 141 205
422 684 176 100 119 203
424 672 178 103 125 163
425 675 176 83 114 177
426 672 177 157 173 194
426 674 176 80 111 172
425 676 176 115 140 183
424 677 178 125 147 183
424 678 178 117 139 183
428 672 176 162 177 197
425 681 176 119 145 193
425 682 176 114 143 198
424 684 176 106 138 206
416 694 167 162 184 211
417 695 166 147 175 206
419 693 167 161 182 209
419 694 166 186 201 223
421 692 167 158 187 221
420 694 166 189 204 226
423 693 166 146 179 215
423 695 164 134 174 212
416 688 170 138 178 216
417 689 170 153 185 219
417 691 168 164 190 220
419 688 170 116 148 195
418 691 168 162 187 217
416 693 168 162 187 216
421 689 169 120 153 197
421 689 170 107 133 185
421 691 168 156 186 221
423 689 170 116 141 187
423 691 168 142 170 205
423 688 172 127 146 199
419 699 163 164 191 222
417 696 166 152 179 211
417 698 165 159 185 215
419 696 165 169 194 224
418 699 164 163 190 221
417 701 163 149 177 208
416 703 163 150 172 199
418 701 163 155 181 210
418 703 161 140 169 199
416 700 164 163 184 213
420 699 162 160 185 215
423 696 163 141 177 213
422 699 162 160 186 216
420 697 164 156 188 222
422 697 164 135 172 208
420 700 162 154 180 210
420 703 161 155 185 217
422 701 160 172 195 223
422 700 162 160 185 214
424 693 166 129 166 203
425 694 165 117 157 199
427 692 167 118 151 202
427 694 165 111 136 191
429 693 167 160 181 231
429 694 167 153 173 224
430 694 166 167 183 232
431 695 166 154 174 220
424 691 168 125 156 192
424 690 170 131 158 197
426 691 168 123 155 200
427 690 170 166 194 238
425 688 172 143 163 226
426 689 172 146 171 229
425 692 168 118 151 192
429 689 171 188 205 228
428 691 170 183 200 236
430 688 170 163 180 206
431 689 170 171 185 210
430 690 170 172 190 217
428 692 169 174 195 240
430 692 168 166 187 226
424 697 162 174 196 224
424 699 161 174 194 220
426 697 162 171 189 220
426 699 161 161 182 211
425 696 164 164 190 223
424 701 160 171 193 221
426 700 161 148 174 204
428 697 163 144 162 204
429 698 162 120 145 194
430 698 163 154 170 220
428 696 164 130 152 200
430 697 164 158 178 228
428 700 161 150 178 208
430 700 161 144 175 214
431 700 162 145 170 222
439 676 167 148 160 190
439 679 166 177 187 207
434 674 171 140 161 201
432 672 173 194 197 208
433 673 172 141 146 191
433 675 172 109 130 191
432 676 171 103 134 189
433 679 169 97 122 196
433 678 170 132 152 206
434 676 171 191 205 224
434 679 169 115 137 202
432 676 172 86 119 184
436 673 170 134 156 190
437 675 169 207 209 220
438 672 168 84 114 146
439 673 168 131 153 178
439 674 169 164 176 196
437 676 168 202 204 217
436 679 168 198 208 228
439 676 168 177 183 203
434 684 167 142 165 212
435 687 165 124 136 201
435 687 166 120 134 199
437 681 167 184 194 221
436 683 167 93 123 197
438 680 166 199 205 221
438 682 165 147 163 208
438 682 166 154 169 210
439 686 162 94 117 190
437 685 164 124 145 204
436 687 165 128 141 202
436 687 166 132 143 204
439 685 164 116 135 202
432 680 170 115 139 198
432 683 169 143 161 205
432 682 170 152 169 208
435 680 168 119 136 197
432 684 169 117 134 195
432 684 170 111 129 192
433 687 168 92 116 189
443 672 161 113 90 65
441 672 165 89 88 91
441 673 166 141 149 162
441 675 167 149 161 182
443 673 164 92 90 91
443 674 165 138 144 154
440 676 167 140 153 185
441 679 165 164 173 203
441 679 166 168 175 202
443 676 166 179 184 197
443 679 165 192 200 216
445 672 160 110 86 60
444 673 163 80 74 73
445 675 162 78 93 112
447 674 160 81 74 73
444 675 164 129 140 156
446 676 162 79 104 133
447 677 163 90 119 165
444 676 164 159 167 181
445 677 164 152 164 183
445 679 164 155 163 198
440 673 168 152 165 182
441 682 163 211 216 235
442 683 162 211 215 233
440 680 165 193 199 217
441 681 165 198 203 217
441 682 164 215 220 235
443 681 164 210 213 226
441 684 162 160 170 210
441 686 161 104 126 199
443 684 161 138 147 201
443 684 162 179 188 219
443 687 160 151 168 209
445 681 163 138 156 210
444 683 162 192 199 227
446 681 163 108 133 206
446 683 161 152 169 216
447 682 162 111 138 206
444 685 160 164 184 219
444 686 160 190 204 227
433 688 167 117 142 191
435 689 165 122 141 196
435 688 166 112 130 195
435 691 165 127 147 192
435 695 163 96 121 189
433 692 167 163 181 207
432 695 166 174 194 225
435 692 164 122 142 193
434 693 166 158 172 205
435 695 164 123 145 201
436 690 163 119 132 195
437 691 162 114 128 194
438 688 162 112 129 197
438 691 160 135 148 201
436 688 164 127 141 203
436 690 164 128 143 199
436 692 163 113 131 191
436 695 161 101 127 186
436 694 162 88 117 185
437 695 162 102 126 186
438 694 160 127 144 192
433 688 168 112 136 190
432 692 168 171 188 217
433 698 163 116 133 202
435 696 163 99 126 192
435 699 161 160 181 211
435 699 162 172 192 224
433 696 165 134 155 208
432 700 161 151 178 224
433 701 161 178 197 236
434 701 160 160 177 225
437 696 160 80 109 177
436 697 162 145 166 204
437 698 160 89 117 174
441 689 160 70 108 190
384 645 193 125 129 139
384 647 193 176 181 194
386 645 192 86 78 80
387 647 192 118 121 134
389 647 192 111 113 120
385 649 194 127 144 179
385 651 194 65 98 159
386 648 194 168 178 196
386 651 194 73 104 163
385 652 195 54 95 154
385 655 195 48 100 167
387 653 194 59 102 159
387 655 194 68 108 165
388 648 193 154 164 180
388 650 193 134 143 187
390 648 192 118 125 138
390 650 193 156 166 194
391 651 193 155 167 199
388 653 194 58 99 160
389 655 194 51 90 156
390 654 193 69 99 165
393 649 192 121 130 146
394 650 192 137 145 157
393 653 192 156 172 208
394 652 192 159 172 197
394 655 192 114 137 190
385 657 195 95 137 191
385 658 194 127 163 209
387 656 194 56 101 168
386 659 194 100 133 203
384 660 193 139 161 215
386 660 193 94 125 205
389 656 193 49 93 160
389 657 194 58 103 170
388 659 194 56 102 180
391 657 193 68 109 170
388 660 193 95 135 201
389 661 193 146 176 220
390 661 193 129 160 209
391 662 192 174 192 224
392 657 193 67 108 169
392 659 192 113 143 185
394 657 192 51 92 170
392 660 192 124 153 191
392 662 192 158 176 211
394 661 192 129 153 187
385 704 157 155 129 108
385 705 158 173 146 114
386 704 157 144 126 111
386 706 157 127 104 86
387 707 158 121 42 60
384 710 158 162 132 106
386 709 158 151 86 77
387 710 158 154 51 64
389 705 157 138 71 81
389 707 158 143 31 50
390 706 157 140 37 51
388 708 158 141 35 52
388 711 158 163 76 81
390 709 158 141 24 48
391 710 158 132 21 48
385 713 158 152 69 83
385 714 158 137 37 64
386 715 157 138 38 64
384 716 157 128 73 87
384 719 157 88 68 60
387 716 157 125 55 79
387 718 157 113 83 87
389 712 158 149 61 61
389 714 158 129 48 69
391 713 158 125 36 54
388 716 157 126 74 87
388 719 157 119 112 111
391 717 157 164 125 65
390 719 157 140 115 88
393 704 157 157 71 78
393 707 157 133 27 39
394 705 158 146 51 66
395 706 157 139 70 76
393 709 157 153 89 92
393 710 158 141 57 66
395 709 157 125 31 53
394 711 158 131 12 37
396 706 157 129 76 80
397 707 158 97 30 45
398 706 158 96 30 49
396 709 157 125 32 68
397 710 157 127 50 93
399 709 157 84 44 115
399 710 157 73 51 115
393 713 158 155 85 101
394 712 157 140 35 56
395 713 158 142 97 69
395 714 158 146 112 69
392 717 158 171 127 59
393 718 157 171 134 93
395 717 157 183 154 117
395 719 157 172 132 104
396 714 157 165 137 98
398 713 157 160 142 122
399 714 157 140 112 100
397 717 157 141 105 92
397 719 156 173 86 95
399 717 157 149 58 75
399 719 156 172 78 95
385 721 157 99 109 122
385 722 156 72 86 106
387 720 156 131 140 155
387 723 156 44 27 61
384 726 156 124 129 142
386 725 156 65 68 86
387 726 156 97 96 111
389 720 156 112 109 109
389 722 156 80 70 90
391 720 157 149 126 106
391 722 156 146 131 124
390 725 155 79 84 105
391 727 155 105 98 110
388 726 156 71 66 88
391 724 156 118 104 100
387 729 155 92 111 132
384 728 156 128 136 150
384 731 156 132 129 140
387 728 156 88 100 131
385 732 155 143 127 122
385 734 155 166 126 112
387 733 154 144 122 119
387 734 154 162 128 119
389 729 155 83 99 118
389 730 155 55 63 77
391 728 154 80 65 70
390 730 154 70 63 66
388 732 155 107 104 115
389 734 153 131 122 129
390 733 153 143 128 127
391 732 154 168 152 141
391 735 152 137 125 135
392 721 157 150 123 108
392 723 156 149 121 109
394 721 157 178 137 115
394 723 156 159 81 104
393 725 155 147 110 123
393 727 155 132 103 112
394 726 154 160 96 112
392 724 156 145 118 111
397 723 155 185 115 121
396 720 156 206 138 137
397 722 156 171 57 71
398 722 156 171 56 68
397 725 154 174 119 127
396 727 154 128 61 60
398 725 154 149 83 98
398 727 153 141 96 77
393 735 151 103 119 134
395 735 151 100 102 122
397 732 151 76 81 101
397 734 150 113 109 110
398 733 151 128 128 135
399 734 149 133 102 110
392 728 154 112 93 95
392 731 153 122 111 102
394 729 153 75 73 83
395 728 154 101 48 40
395 731 153 86 106 133
393 733 153 117 116 124
394 732 152 103 110 137
394 734 152 60 64 100
397 729 152 135 132 132
397 730 152 133 129 133
399 728 152 138 102 70
396 732 152 47 42 73
400 705 158 72 67 86
400 707 158 62 51 108
403 705 159 89 100 137
403 706 159 101 115 145
401 708 158 54 65 125
401 711 157 138 141 150
403 708 159 134 137 148
402 711 158 134 106 117
404 709 159 140 97 99
405 710 159 157 55 71
400 713 157 138 103 105
401 714 157 159 66 88
403 713 157 166 73 76
403 714 157 156 41 54
401 716 157 168 82 82
401 718 156 146 51 53
403 716 157 149 48 66
403 718 156 135 39 47
405 712 159 156 44 50
404 714 158 153 41 54
406 713 159 173 69 77
407 714 158 159 63 78
404 717 157 141 48 56
404 719 156 123 44 63
407 716 157 153 93 97
406 719 156 99 30 49
408 713 159 174 86 89
409 715 158 93 50 65
410 715 158 83 75 107
408 717 157 72 54 77
409 717 158 64 60 101
409 719 156 47 52 133
410 717 158 67 69 134
410 719 157 53 65 145
413 713 159 63 74 144
413 715 158 89 123 173
415 715 157 158 177 200
415 715 158 162 188 215
413 717 157 160 185 212
412 719 156 179 197 221
414 716 157 170 196 223
414 716 158 161 190 219
415 719 156 157 130 133
405 735 130 201 49 44
407 733 130 193 42 54
406 734 130 206 66 76
406 735 132 197 23 40
407 735 135 179 32 50
407 735 143 178 64 72
413 726 129 206 44 49
414 725 128 185 193 206
415 725 129 188 110 124
414 726 130 209 35 49
415 725 132 201 65 73
415 726 133 210 47 70
415 727 134 209 25 55
415 727 136 189 35 61
415 727 139 135 101 125
414 727 143 184 39 73
408 731 128 194 57 61
410 729 128 193 72 91
411 729 130 195 49 65
410 730 131 191 49 53
410 731 132 200 35 52
411 731 133 202 23 47
408 732 129 196 28 60
408 733 130 195 32 45
408 733 133 202 33 47
409 732 134 201 43 57
408 734 134 188 32 49
410 732 132 203 22 43
410 733 135 190 48 58
412 728 131 183 70 81
412 728 132 222 105 122
412 729 134 205 32 61
413 729 135 200 37 56
414 728 134 206 34 57
411 731 139 103 65 82
409 733 136 141 39 49
408 735 136 139 26 46
408 735 139 153 65 101
410 733 137 97 45 47
411 732 138 110 47 78
408 735 140 156 110 116
408 734 143 176 41 81
410 733 141 103 68 131
410 733 142 137 58 128
413 729 136 179 63 68
412 730 137 98 77 77
412 730 139 102 85 96
414 728 136 184 41 55
414 729 138 79 51 59
413 729 143 178 45 79
413 730 140 106 98 117
413 730 142 136 73 133
414 729 141 102 60 131
400 722 155 159 33 61
403 721 155 149 73 78
403 723 154 171 65 65
401 721 156 162 52 66
400 725 153 164 103 71
401 724 154 155 45 52
401 726 153 187 135 68
402 725 154 174 81 62
402 727 152 185 138 68
404 721 155 132 52 61
404 723 155 156 64 70
407 720 155 90 45 97
407 723 154 80 56 96
406 720 156 97 34 60
405 724 154 134 75 64
406 725 153 131 101 76
406 726 152 145 97 62
407 727 152 161 64 67
401 730 151 167 135 127
403 728 151 175 122 80
403 730 151 201 156 132
403 735 147 192 104 112
401 732 150 176 138 117
401 734 148 180 88 108
403 733 149 186 65 77
402 734 149 188 103 113
405 728 151 159 82 73
404 731 150 190 81 85
407 728 151 163 38 59
407 731 148 168 50 58
404 735 145 160 88 77
404 734 147 166 66 71
406 733 146 149 47 53
406 734 145 162 57 55
407 735 144 186 50 65
405 732 148 162 25 40
406 733 148 152 42 45
402 728 152 181 138 81
411 727 150 170 53 60
415 725 145 189 41 59
415 726 144 192 35 46
414 726 147 116 35 40
413 725 151 189 62 76
412 726 150 183 79 82
414 725 149 120 65 78
414 725 150 169 87 104
414 726 149 120 67 76
408 723 154 134 142 155
411 721 155 148 130 141
411 723 155 160 46 75
410 720 156 81 107 156
409 725 153 180 89 97
408 726 152 175 56 70
409 727 152 184 35 57
410 725 154 204 129 128
411 726 152 183 57 72
412 722 155 162 47 66
415 721 153 157 65 66
415 720 155 176 83 94
415 722 153 171 50 62
412 720 156 161 172 189
412 725 152 176 33 47
412 724 154 182 21 47
409 731 147 121 33 51
410 730 147 100 25 46
411 731 146 145 38 47
409 728 151 183 36 62
409 730 148 160 41 48
411 728 149 166 40 56
410 729 150 180 30 52
408 733 144 179 43 54
408 732 146 141 45 56
410 732 144 189 42 60
413 729 144 192 43 56
413 728 146 143 16 49
413 730 144 197 40 58
412 728 149 153 70 80
403 705 160 97 110 141
405 704 161 141 162 185
405 706 160 135 145 157
406 704 163 156 174 199
406 706 161 147 150 162
407 706 162 149 131 142
406 708 160 166 112 118
407 709 161 181 67 75
408 704 163 139 158 179
408 706 163 157 119 127
410 704 163 153 153 163
410 706 163 164 76 71
409 704 164 147 166 186
409 708 161 177 67 84
408 711 160 175 38 59
410 708 162 181 70 80
410 711 161 179 74 85
412 705 163 176 98 113
412 707 162 182 89 96
414 705 162 153 123 136
415 707 161 120 127 163
412 704 164 160 158 175
413 708 162 169 134 149
413 711 160 98 91 149
415 709 160 97 121 173
414 711 160 81 89 159
409 713 160 177 115 116
412 712 160 111 97 135
415 712 160 93 127 183
391 750 129 176 162 153
387 751 143 128 118 111
391 751 138 163 132 97
388 750 143 112 108 108
389 751 142 205 191 183
391 748 142 96 93 102
390 751 140 80 62 60
396 743 128 208 181 178
399 741 129 201 130 135
399 742 128 197 141 161
399 742 131 180 84 94
399 743 134 133 95 71
397 743 142 119 113 108
398 743 141 152 149 153
398 742 143 70 65 74
393 747 128 99 107 117
395 746 128 97 92 104
395 747 130 96 64 44
392 749 128 89 67 59
393 749 129 170 142 117
392 750 129 151 132 115
393 750 130 196 175 159
394 749 131 209 185 164
393 750 132 141 132 133
393 750 134 133 121 116
394 749 132 173 161 153
394 749 134 121 122 130
395 749 135 98 94 120
396 745 128 149 124 135
397 744 130 167 129 134
398 744 131 143 80 76
396 746 133 104 131 160
396 746 134 61 83 126
398 744 132 124 60 71
398 745 134 107 125 147
395 747 139 131 123 131
395 744 143 155 139 137
395 747 140 131 113 118
395 746 142 147 115 105
393 750 136 181 148 132
392 750 139 162 139 120
394 749 137 147 134 125
394 748 139 155 140 130
394 750 136 185 163 158
393 748 140 147 130 119
393 748 142 103 97 98
397 745 139 93 66 111
396 746 138 87 69 105
397 746 139 95 76 114
398 744 138 37 33 82
399 744 139 86 85 113
397 745 140 112 93 121
397 744 142 134 121 121
397 746 140 101 83 111
384 742 151 149 142 143
385 743 151 104 94 90
387 742 150 127 117 116
390 738 151 181 159 153
391 743 147 127 103 92
389 741 150 132 101 93
388 742 150 143 125 118
390 740 151 134 107 108
390 743 148 112 95 98
390 742 150 141 122 105
385 736 154 165 124 105
385 739 152 109 88 98
386 736 154 155 111 90
387 738 152 145 126 119
385 740 152 111 98 114
387 741 152 120 108 107
389 737 153 163 132 111
389 739 152 156 120 111
391 737 152 152 130 135
387 747 147 156 142 136
385 744 150 85 65 65
385 746 148 41 34 55
387 744 149 116 113 119
386 746 149 38 31 50
385 749 147 189 171 157
384 751 147 177 154 134
386 748 147 174 156 141
387 749 146 183 160 143
387 750 145 158 143 140
385 748 148 142 128 122
389 747 146 96 75 74
391 745 146 124 108 97
391 747 145 139 125 114
388 744 149 133 129 133
389 745 148 131 131 141
388 748 145 106 85 93
388 748 146 144 122 110
390 748 144 73 66 71
392 737 151 150 138 149
392 739 150 125 117 130
394 737 150 92 96 132
394 738 149 109 115 136
394 738 150 95 94 125
393 742 147 159 116 93
394 742 147 145 113 95
395 743 146 123 109 107
393 741 149 144 122 127
394 740 149 122 115 121
397 739 147 99 89 87
398 739 147 97 88 87
397 736 149 107 118 138
396 738 148 104 104 118
397 739 148 88 71 76
399 736 149 129 103 110
396 740 147 119 114 115
397 741 147 129 124 122
397 742 145 88 84 100
399 740 144 79 93 125
398 740 147 104 102 104
392 736 152 152 144 150
392 744 147 129 99 80
392 747 144 157 142 140
394 745 145 103 84 86
396 744 144 139 135 142
387 755 130 159 116 72
385 757 130 184 161 140
384 758 130 209 185 165
385 758 131 205 184 170
386 756 130 162 148 147
385 757 135 148 127 115
384 758 135 147 122 98
386 757 132 76 71 83
386 757 135 109 96 100
388 753 128 178 152 125
388 754 128 180 144 101
388 755 130 186 137 71
390 752 129 184 145 117
391 752 130 176 138 106
389 754 133 182 165 153
389 754 134 133 110 92
391 752 132 163 133 101
390 753 135 173 153 146
390 754 132 175 130 73
387 754 137 182 168 159
387 754 138 172 157 148
384 755 141 175 153 134
384 755 142 180 161 149
387 752 141 210 189 171
386 753 143 179 155 135
386 755 140 180 152 126
385 756 137 184 163 147
384 757 139 162 134 106
384 758 137 180 161 145
386 756 136 173 160 151
386 756 138 178 154 132
384 756 142 196 174 160
389 752 138 111 93 92
388 754 137 176 163 155
390 752 137 158 127 98
390 752 138 122 105 88
389 752 140 157 134 122
392 752 136 213 176 140
385 752 145 186 159 137
401 739 129 188 62 76
402 738 129 205 49 77
402 739 130 197 57 73
402 739 132 197 29 45
403 739 135 175 67 56
401 740 128 191 51 89
401 740 131 202 43 66
400 741 132 186 18 63
401 741 135 173 128 100
400 742 135 155 125 95
402 740 132 188 29 48
402 741 135 184 127 96
404 737 128 182 40 47
404 737 131 203 53 59
404 737 132 199 28 56
404 738 132 197 22 58
404 739 135 169 39 45
406 737 133 195 32 52
407 736 134 189 27 53
401 739 143 153 136 123
403 739 141 210 171 134
403 738 143 161 116 48
400 743 136 155 134 117
400 742 139 172 154 138
402 741 137 196 154 93
402 741 139 192 159 126
401 740 141 173 146 127
400 741 142 90 72 90
400 742 141 96 89 95
404 739 137 214 128 63
404 739 139 247 200 141
407 736 136 144 11 43
407 736 138 164 60 77
406 738 138 204 127 82
404 736 143 184 128 50
405 737 142 188 147 104
404 738 142 201 162 114
407 736 141 239 201 151
408 736 137 158 43 75
401 737 146 139 59 70
401 738 144 136 106 85
402 737 145 161 106 83
402 736 146 155 54 74
402 738 145 161 121 89
405 736 144 181 110 54
423 715 128 185 197 217
421 717 128 191 198 213
420 719 128 194 200 215
421 718 130 186 200 220
422 717 128 189 198 214
422 717 131 186 201 223
421 718 132 195 206 224
422 717 132 195 206 225
423 717 134 206 210 223
422 718 134 168 174 185
423 717 136 193 202 218
423 718 136 194 202 217
423 718 139 203 212 229
423 717 143 190 208 232
423 718 141 203 214 233
423 718 142 199 212 234
426 711 128 187 198 218
426 711 130 201 208 222
427 711 132 186 192 208
429 707 130 162 169 189
431 705 129 163 169 193
430 706 130 196 198 212
431 706 131 168 179 200
431 707 133 134 153 189
428 709 129 194 200 215
429 708 130 182 188 205
430 708 131 150 166 196
429 709 134 207 213 227
428 711 133 206 209 223
429 710 134 207 213 228
430 709 133 196 205 222
431 708 135 209 214 228
429 711 137 193 210 233
431 708 136 197 210 231
431 708 138 176 200 229
430 710 138 157 189 222
429 711 143 195 205 224
430 710 140 170 195 222
430 710 143 160 176 210
425 712 128 170 188 211
425 713 131 187 196 214
424 715 130 180 194 214
426 712 130 195 203 220
425 713 132 201 206 219
425 715 133 217 219 231
426 713 132 205 208 221
426 713 134 208 215 231
427 713 135 201 210 227
424 716 133 212 215 228
425 716 135 204 211 227
427 712 136 210 217 232
426 714 136 203 209 224
427 714 137 205 213 229
427 714 138 191 205 227
427 713 142 193 204 223
427 714 141 181 197 220
427 714 142 190 203 224
425 716 136 197 206 224
425 716 139 187 199 217
424 716 142 186 204 229
425 716 143 188 205 229
428 712 139 158 187 219
428 712 140 170 192 219
429 712 141 208 216 233
429 712 142 205 211 227
417 709 159 147 172 200
417 711 159 146 173 203
419 708 158 168 189 214
419 710 157 173 192 216
419 710 158 160 183 210
420 707 158 181 200 225
422 704 159 182 199 221
423 705 158 194 210 233
422 707 158 191 205 228
422 710 155 167 187 213
423 711 154 155 176 201
420 708 158 175 196 222
420 711 156 154 181 213
422 709 157 168 188 213
419 717 151 152 163 180
419 718 150 156 173 199
423 713 151 173 199 230
422 714 151 158 188 220
423 715 150 178 203 233
421 719 145 171 87 116
421 718 147 191 205 224
423 717 145 182 198 221
423 716 147 187 206 232
421 716 149 181 206 236
421 716 150 175 202 233
420 719 148 145 169 199
422 717 148 187 210 238
418 715 155 159 99 110
417 713 157 151 171 197
417 713 158 161 182 208
417 714 157 149 148 171
418 713 157 143 160 185
418 714 156 162 133 146
417 717 155 163 86 102
416 719 155 141 41 51
419 716 153 152 118 130
418 717 154 158 88 96
418 719 152 121 99 119
417 716 156 171 102 119
420 713 155 154 173 195
420 715 152 141 166 192
422 712 153 148 168 193
423 713 152 152 180 211
420 712 156 148 178 209
425 711 151 179 207 238
427 710 151 192 216 245
429 711 145 174 186 205
431 709 145 171 185 210
430 711 144 163 176 200
428 709 151 189 217 249
428 711 149 193 207 228
428 710 151 197 220 249
431 709 148 195 205 222
431 708 150 181 205 234
426 707 155 140 172 203
424 705 158 178 199 227
425 706 156 174 195 222
426 705 157 164 188 217
426 706 156 146 179 212
424 709 155 127 164 199
424 711 152 156 187 220
424 710 154 142 171 201
426 708 154 166 191 220
426 710 153 157 190 225
428 706 155 120 164 204
431 705 155 90 132 204
430 706 154 128 174 216
428 704 157 138 173 208
429 705 157 112 162 202
431 704 157 147 171 219
429 708 152 152 196 237
430 708 153 126 180 224
425 715 145 200 210 229
425 714 147 201 212 231
426 713 147 199 207 225
426 714 144 197 207 227
426 714 146 205 211 227
424 712 151 173 201 233
425 713 150 183 208 238
426 712 148 188 202 224
427 712 149 187 201 224
428 712 144 199 206 222
428 712 146 202 208 225
416 722 128 180 195 215
417 723 129 192 202 214
418 721 128 191 201 218
418 721 130 198 202 210
419 721 131 195 189 192
419 721 132 183 91 118
418 722 133 219 93 103
418 722 134 225 43 78
416 724 128 190 205 218
416 725 131 214 25 40
417 724 132 221 19 67
417 724 135 211 31 47
420 720 131 191 199 210
421 720 133 183 122 136
421 720 135 191 87 109
418 723 138 159 176 192
419 721 141 206 203 214
419 722 140 157 170 198
418 723 143 213 31 54
417 724 136 174 54 62
416 725 139 136 144 164
416 726 136 187 28 49
418 724 137 138 125 129
417 724 140 118 71 135
416 725 143 203 45 66
416 726 140 118 87 141
418 724 141 190 60 118
420 721 138 200 209 221
420 720 141 207 214 227
420 720 142 218 203 211
421 720 143 211 174 185
417 722 147 149 30 36
419 721 145 207 31 73
419 721 146 186 48 70
418 723 145 208 31 63
417 721 149 110 123 138
416 722 149 103 95 101
417 723 148 108 51 48
417 722 150 93 90 98
419 720 148 149 167 188
416 725 144 203 41 58
416 724 147 150 35 46
416 724 149 90 57 68
416 720 153 141 65 73
417 721 152 100 59 80
432 704 130 174 177 200
432 705 132 144 163 200
432 706 132 156 175 210
432 707 134 186 200 220
434 704 133 157 174 206
435 704 134 168 181 204
433 706 137 157 180 217
433 707 138 157 180 217
435 704 137 152 179 218
435 704 138 151 179 218
434 706 138 157 174 215
433 707 143 138 164 206
435 705 143 215 223 241
432 708 137 176 200 228
432 709 140 216 224 239
432 709 143 78 101 192
436 704 140 169 184 219
433 707 145 124 146 199
435 704 146 139 157 213
434 706 145 123 144 204
433 707 149 177 200 227
433 707 150 174 200 228
435 704 149 151 161 214
435 704 151 164 170 216
434 706 150 134 163 208
432 709 145 168 185 214
433 708 146 165 181 212
436 704 145 152 166 221
436 704 150 174 178 219
433 704 155 163 168 225
432 707 152 158 196 232
434 705 153 163 172 225
434 704 154 181 183 233
434 706 152 144 169 218
433 704 157 162 163 228
417 705 161 133 155 182
416 707 161 135 157 187
418 705 160 140 167 196
418 706 160 151 173 200
416 709 160 132 160 191
418 708 160 154 174 199
448 663 136 125 125 129
448 664 135 124 128 135
448 667 133 101 120 141
449 667 134 113 127 145
449 668 134 122 133 148
449 670 134 93 115 137
450 669 135 130 136 146
451 670 135 143 144 152
448 664 136 122 123 127
449 664 138 128 138 152
450 664 138 119 127 140
450 666 137 52 72 90
451 666 138 109 118 131
448 665 141 46 72 96
449 666 141 45 71 93
449 667 143 52 47 70
451 666 140 121 129 142
450 667 143 36 35 71
451 669 136 143 145 154
452 667 138 127 133 142
452 668 137 127 128 134
452 668 139 106 119 134
452 670 136 150 151 158
453 671 137 153 153 158
454 670 139 101 113 126
452 668 141 50 74 97
452 669 143 39 47 84
454 669 141 68 91 113
455 670 141 103 118 136
455 670 142 73 85 101
456 671 142 92 101 113
448 668 145 94 77 67
448 668 146 104 84 66
448 670 147 104 83 64
450 668 144 70 57 62
451 669 145 74 61 63
451 670 146 80 65 64
452 669 144 45 42 71
453 670 144 40 40 72
453 671 146 59 46 59
455 671 145 46 45 76
449 672 133 93 115 140
448 675 133 77 101 131
450 672 134 119 129 143
451 673 135 156 154 159
451 675 135 136 142 155
449 677 134 79 100 129
450 676 134 98 110 137
450 678 134 91 107 135
452 672 135 160 158 162
451 678 136 102 119 150
453 672 137 167 165 169
453 674 136 177 175 181
455 672 138 136 145 157
454 675 137 129 145 167
452 676 136 125 137 155
453 677 137 176 182 197
453 678 137 184 189 201
454 677 137 159 174 194
455 677 138 148 160 182
454 679 139 165 177 200
455 679 140 209 210 219
449 681 134 130 143 161
448 683 134 123 140 164
450 680 135 121 133 154
448 685 134 94 119 166
449 683 136 107 126 161
451 681 136 144 159 180
450 683 136 128 140 168
451 682 139 67 108 182
448 685 136 117 139 173
449 685 138 123 132 175
449 686 137 128 144 179
449 687 139 98 115 174
450 685 139 136 143 180
449 687 142 133 135 187
451 684 141 72 107 184
451 685 143 124 148 195
450 686 143 175 191 220
452 680 138 83 117 188
452 682 139 62 102 181
453 681 142 123 156 219
453 682 141 125 150 209
453 682 143 129 148 210
455 680 141 221 227 240
455 680 143 103 129 209
456 674 139 108 124 146
457 672 141 118 125 136
457 672 142 120 126 135
456 675 140 192 191 199
458 673 142 111 124 139
458 674 143 89 107 125
456 676 139 172 178 193
457 676 141 192 196 208
456 679 141 227 222 227
457 678 143 214 221 242
458 677 142 128 157 192
449 672 147 97 81 72
449 672 148 104 86 73
448 673 150 111 88 74
450 673 148 98 83 77
450 673 150 98 84 78
452 672 147 77 62 63
455 672 146 46 48 66
453 673 148 64 54 59
453 674 150 64 59 60
455 673 148 57 47 57
454 674 151 70 62 62
448 673 152 110 86 70
448 673 155 111 88 71
449 674 154 103 84 73
451 674 152 84 74 71
451 675 154 81 69 59
449 675 156 94 77 62
449 675 158 79 69 60
449 676 159 67 61 65
450 676 159 61 63 75
451 678 159 64 87 127
453 675 153 78 71 70
454 675 152 73 67 62
453 676 154 91 90 98
454 676 154 85 97 116
455 677 155 65 98 141
455 679 155 93 129 169
453 676 156 75 90 112
453 679 157 66 98 148
453 679 158 62 93 144
454 679 157 62 100 153
450 687 144 150 167 201
450 687 147 110 126 199
450 687 148 115 126 199
451 687 149 161 164 208
451 687 150 196 199 226
453 683 144 165 170 212
455 680 144 111 122 203
454 682 145 229 229 238
455 682 146 244 241 248
455 682 148 232 232 243
455 682 151 217 221 241
452 684 147 221 223 244
452 685 148 209 211 232
452 685 151 205 207 223
451 681 159 83 118 195
451 683 158 57 113 199
451 685 154 227 228 239
451 686 152 212 215 229
450 687 155 223 225 236
448 685 158 110 141 211
449 685 159 82 123 201
449 687 156 225 236 252
450 685 156 218 227 244
451 685 157 174 198 233
450 686 157 209 225 247
453 683 155 175 193 222
455 680 154 171 187 208
454 682 153 182 195 221
454 682 154 190 201 223
452 680 158 72 104 164
452 682 157 105 139 207
453 683 156 116 146 203
454 681 157 119 150 189
453 684 152 194 201 224
453 684 154 221 227 242
457 672 145 93 86 82
456 673 146 62 56 73
458 673 144 94 85 85
459 674 144 84 89 100
458 674 147 85 67 72
456 673 148 65 57 69
457 674 149 70 57 63
456 675 151 68 58 68
458 675 149 75 63 69
457 679 145 137 159 218
459 677 144 148 164 222
459 677 147 111 149 198
458 678 146 133 154 220
459 678 147 143 170 227
459 676 148 87 98 122
458 676 151 95 116 140
458 679 149 206 218 240
458 679 150 200 214 235
456 677 153 119 144 172
456 678 153 121 147 180
457 679 153 143 166 194
456 680 145 191 205 233
456 681 146 236 238 249
456 681 149 217 224 240
456 681 151 202 209 231
456 682 150 184 194 226
456 681 152 202 210 228
448 688 137 118 139 188
449 688 139 103 124 179
449 688 141 111 124 183
449 689 142 99 106 175
448 690 143 116 138 199
449 689 144 145 152 201
449 689 147 151 178 213
449 690 145 142 153 204
449 690 146 156 170 215
450 688 147 111 142 200
448 689 151 122 142 208
448 690 148 173 190 222
449 690 149 165 187 220
450 688 148 98 129 198
448 689 153 136 150 214
448 688 154 160 176 222
449 688 155 200 210 236
448 688 156 186 203 247
448 677 161 69 101 144
449 678 161 77 110 159
450 677 160 55 80 111
451 679 160 63 73 133
448 681 162 87 122 195
449 682 160 130 149 210
450 681 160 132 155 210
450 683 160 108 130 207
257 768 86 141 126 112
257 771 86 151 131 114
258 770 86 112 103 97
256 773 86 129 114 103
257 774 86 158 136 118
259 773 86 139 124 113
260 768 86 150 134 121
260 771 86 140 125 113
263 768 86 145 125 108
263 771 86 130 112 95
260 774 86 153 133 115
262 773 86 130 111 94
263 774 86 129 108 88
257 777 86 106 87 71
258 776 86 145 128 114
258 779 86 129 113 99
257 780 86 131 109 85
257 782 86 140 120 101
258 781 86 101 77 50
258 782 86 104 80 50
260 776 86 145 123 101
260 779 86 141 124 112
263 776 86 143 120 98
263 779 86 159 127 90
261 780 86 161 135 109
260 783 87 94 78 61
263 780 86 169 137 100
263 783 86 180 153 127
264 770 86 141 123 107
266 769 86 148 130 115
267 770 86 138 121 106
265 773 86 165 127 78
266 772 86 178 143 103
266 775 86 168 132 89
269 768 86 111 95 79
269 771 86 91 73 57
270 770 86 127 111 98
268 773 86 143 118 91
269 774 86 128 107 85
271 773 86 161 131 96
264 776 86 121 106 95
264 779 86 107 91 76
267 776 86 182 139 80
267 779 86 156 119 74
264 782 86 163 140 118
266 781 86 139 95 55
267 782 86 102 90 79
269 777 86 142 117 89
270 776 86 101 84 70
270 778 86 153 133 115
268 781 86 155 137 121
269 782 86 165 146 131
271 781 85 169 147 130
271 783 85 166 148 132
257 784 87 173 144 113
257 787 87 190 164 141
258 786 87 175 147 119
256 789 87 134 124 120
257 790 87 150 142 140
259 789 87 176 153 133
260 784 86 110 81 62
260 786 87 171 128 78
262 784 86 145 134 127
262 787 86 54 92 121
260 789 87 167 150 136
261 790 87 154 143 138
263 788 87 72 96 118
263 790 87 121 121 125
258 793 87 101 90 82
260 793 87 174 153 135
261 794 87 145 119 94
263 793 87 152 141 137
261 796 87 160 109 79
263 796 87 140 155 174
263 799 87 78 120 155
257 794 88 135 130 132
259 794 88 128 116 108
257 797 88 152 141 135
258 796 88 148 138 134
258 799 88 118 130 145
260 797 88 164 123 91
261 798 88 147 135 127
265 784 86 165 139 114
265 787 86 174 161 153
266 786 86 152 145 143
264 789 86 134 124 120
264 791 87 150 137 128
267 788 86 149 143 143
267 791 86 143 120 103
268 786 86 112 117 126
270 785 85 175 158 146
270 786 85 153 139 130
270 787 86 103 107 114
268 790 86 144 138 136
271 788 85 147 135 129
271 791 85 144 115 90
264 792 87 153 139 129
265 793 87 151 114 87
266 792 86 157 111 91
266 794 87 171 141 117
264 796 87 85 125 159
264 799 87 119 140 164
267 796 86 129 124 124
266 799 87 133 108 86
269 792 86 148 145 148
269 795 86 59 109 147
271 792 86 148 135 127
271 795 86 127 134 144
269 797 86 137 122 110
269 799 86 97 77 54
271 797 86 93 91 95
271 799 86 89 113 137
272 770 86 166 134 98
274 769 86 140 119 98
275 770 86 121 105 91
273 773 86 177 130 66
274 772 86 159 125 84
274 775 86 161 125 81
277 768 86 144 118 90
277 771 86 163 129 87
278 770 86 168 139 106
276 773 86 106 91 79
277 774 86 151 127 104
279 773 86 160 130 97
272 776 86 157 122 75
273 779 85 178 154 134
274 777 86 155 130 101
274 778 86 153 133 114
272 781 85 174 153 135
273 782 85 160 144 133
275 781 85 73 91 109
276 776 86 151 110 78
277 779 85 141 126 114
278 776 86 163 142 124
279 779 85 137 129 127
276 780 85 138 126 117
276 783 85 122 121 125
279 780 85 120 118 121
279 783 85 139 128 121
280 770 86 106 90 74
282 768 87 131 108 86
282 770 86 91 76 64
283 771 87 127 109 92
280 774 86 116 101 88
282 773 86 116 83 50
283 774 86 159 132 103
284 769 87 174 136 90
285 770 87 160 116 57
287 769 87 103 83 62
284 772 87 141 114 83
284 775 87 173 152 136
287 772 87 57 52 56
287 775 87 31 43 66
287 772 88 70 52 37
281 777 86 99 96 97
281 779 86 99 107 118
282 778 86 148 135 127
280 781 85 93 101 111
280 783 85 124 121 122
282 780 86 136 128 125
282 783 86 125 118 115
