ply
format ascii 1.0
comment Created by Open3D
element vertex 2118
property double x
property double y
property double z
property uchar red
property uchar green
property uchar blue
end_header
200 591 207 185 179 181
206 577 208 75 127 164
205 581 208 113 82 96
207 581 209 95 136 169
203 588 208 174 171 176
205 584 208 137 94 107
206 584 209 103 65 82
207 587 209 111 80 96
204 590 208 177 172 174
207 588 209 116 63 83
206 591 210 163 148 151
192 595 204 120 143 170
194 594 204 92 118 154
193 596 205 96 121 155
194 596 205 98 123 156
196 592 205 115 138 164
196 595 206 107 134 164
198 594 206 161 163 172
196 597 206 97 130 163
198 596 207 171 172 181
199 598 207 159 163 176
193 602 205 140 156 178
194 602 205 141 156 180
192 605 204 128 149 175
194 604 205 137 157 183
195 606 205 126 150 180
197 602 206 96 133 169
199 602 207 93 125 160
196 607 205 118 142 173
199 605 207 75 112 159
201 593 207 172 168 172
200 598 207 166 165 172
202 593 208 162 160 165
203 595 208 176 172 177
202 596 208 183 177 180
202 599 209 173 171 176
204 595 209 182 177 180
207 592 210 146 121 128
204 597 209 185 179 181
205 599 210 169 165 170
206 598 211 164 162 166
201 601 208 165 166 176
202 601 209 184 179 182
200 604 208 83 113 157
201 606 208 102 126 164
202 606 209 147 156 172
204 600 210 172 168 172
205 603 210 171 166 169
206 603 211 171 167 170
205 605 210 173 169 173
206 604 211 166 164 169
206 607 212 164 164 172
208 578 208 81 131 168
211 577 209 76 125 164
208 581 209 89 133 169
210 580 209 68 112 149
211 582 210 78 125 162
212 578 210 80 130 168
215 577 210 86 130 164
212 581 210 83 130 166
213 583 211 83 129 165
215 580 212 78 116 150
209 585 210 81 128 165
211 584 210 78 128 166
211 586 211 80 130 167
208 591 210 104 64 79
210 589 211 79 128 163
211 591 212 78 127 164
214 584 211 78 125 161
214 586 212 72 112 148
212 589 212 87 134 170
213 591 213 71 115 153
214 591 213 74 121 159
217 576 212 80 114 143
219 576 212 103 69 87
219 579 214 93 84 107
216 582 212 78 121 156
219 580 213 93 111 138
219 583 214 89 121 150
221 578 213 142 106 106
223 577 214 174 168 172
220 581 214 111 97 111
222 580 215 152 142 145
223 583 214 161 140 136
217 586 213 79 126 163
218 586 214 79 122 157
217 589 214 83 132 169
218 589 214 83 132 170
218 591 214 77 122 161
221 584 214 120 66 84
221 587 215 104 103 124
223 586 214 131 93 103
220 591 215 76 126 164
222 591 215 85 119 151
209 593 211 101 92 106
210 592 212 87 131 165
208 596 211 149 125 131
208 599 212 131 120 125
211 597 213 86 97 119
212 593 212 92 135 169
212 595 213 89 132 166
214 594 213 78 131 171
212 597 213 85 112 139
213 599 214 91 133 166
215 599 214 90 141 180
208 603 212 165 164 169
211 600 213 115 69 87
208 605 212 179 175 179
210 605 213 172 160 162
211 607 213 147 156 172
213 603 214 102 121 145
215 603 214 93 137 172
213 607 214 123 140 163
215 607 214 95 123 154
217 594 215 85 137 177
219 593 215 94 136 171
217 596 215 78 125 166
218 596 215 81 126 166
219 599 215 80 136 180
221 595 215 76 130 171
223 595 215 80 120 155
221 599 215 86 140 182
223 599 215 82 133 172
217 602 215 102 138 172
218 602 215 100 141 177
217 605 214 80 123 158
219 604 215 105 150 186
220 601 215 88 141 181
222 601 215 75 126 169
220 605 215 132 162 193
221 607 214 115 142 171
223 607 214 139 159 184
193 608 204 121 147 177
194 609 205 115 144 176
192 612 203 94 119 146
193 612 204 79 113 147
194 614 204 94 123 154
197 608 206 115 140 168
198 608 207 116 141 170
196 612 205 101 130 161
196 614 206 104 130 159
199 613 207 102 125 156
192 618 202 89 96 110
194 616 204 120 138 158
192 620 202 104 103 110
193 623 203 114 110 113
194 622 205 162 157 160
196 616 206 117 135 158
196 619 206 156 156 162
196 620 205 143 142 149
196 623 206 160 156 159
199 615 208 82 108 141
199 618 209 112 122 138
198 621 208 160 157 162
198 623 209 161 157 160
201 608 209 118 140 165
201 611 209 90 116 142
202 610 210 104 128 155
201 613 209 74 104 135
202 612 209 99 121 146
202 615 210 99 119 141
205 608 211 138 148 165
205 610 212 112 134 158
207 610 212 115 137 162
205 613 212 121 137 157
206 612 212 126 143 164
207 615 213 136 147 165
200 618 210 140 142 149
202 618 211 163 160 165
203 618 213 151 150 156
201 621 211 159 155 159
201 623 213 180 175 178
202 622 213 181 175 179
205 616 213 171 170 176
207 616 213 157 161 172
205 620 213 185 179 184
207 620 213 184 179 183
192 625 203 121 118 121
193 627 203 120 118 122
194 625 204 152 148 151
194 626 205 150 146 150
192 628 203 100 98 102
193 629 205 141 138 142
193 630 206 141 139 143
195 628 207 156 153 157
192 632 206 125 122 125
192 635 207 106 105 109
194 630 208 148 145 150
196 624 208 148 146 150
196 626 209 158 155 159
198 624 210 160 157 160
199 626 211 167 163 166
196 629 209 159 155 160
196 631 210 154 151 156
198 629 212 177 171 174
199 631 213 185 180 183
193 634 209 135 137 144
194 632 210 157 153 157
194 635 210 138 139 147
192 637 209 142 140 145
192 638 210 143 142 148
194 639 211 165 163 168
196 632 211 156 153 157
197 634 212 168 167 172
199 634 212 181 178 182
196 638 212 132 105 122
198 638 212 123 51 83
201 625 212 171 168 173
202 625 213 186 180 182
200 628 213 167 164 170
201 631 213 182 178 183
202 631 212 181 177 181
204 627 213 184 178 182
207 625 212 180 173 175
207 629 211 168 166 172
205 628 212 187 181 183
207 628 212 186 180 182
203 635 211 160 146 148
201 634 212 177 176 181
200 637 211 121 43 65
202 636 211 130 90 90
202 639 211 97 117 143
205 632 211 185 180 183
206 633 211 183 178 181
207 635 210 132 50 69
204 638 210 97 117 144
206 638 210 89 122 153
209 608 213 97 117 145
211 608 213 112 135 160
208 613 213 130 148 170
210 613 213 132 151 175
212 608 214 117 140 166
214 608 214 95 124 154
212 613 213 121 141 165
213 614 213 138 150 167
214 615 213 187 181 184
208 619 213 181 176 179
210 619 213 164 160 163
208 623 213 187 179 182
211 621 213 182 175 178
213 616 213 187 181 182
215 616 213 182 175 177
212 620 212 183 176 178
213 622 212 182 174 175
215 622 212 193 183 182
217 610 214 148 166 189
219 610 214 149 166 188
216 615 213 195 187 188
218 615 213 197 186 184
220 611 214 133 154 180
222 611 214 124 146 171
221 612 214 124 148 175
223 612 214 157 166 182
217 617 213 170 165 169
218 617 212 187 177 177
219 619 212 190 179 177
217 623 212 194 182 180
219 623 212 167 159 160
220 619 212 194 181 177
223 617 212 174 167 170
223 623 211 179 167 164
221 623 212 175 166 166
223 623 212 179 168 165
209 624 212 184 177 179
211 624 212 169 165 169
209 629 211 174 170 175
211 629 211 190 183 185
214 627 211 165 159 162
214 624 212 187 180 181
212 628 211 178 170 172
214 628 211 182 175 178
214 630 212 171 168 174
209 633 211 171 163 167
211 632 211 184 180 182
208 636 210 122 49 64
210 636 210 113 75 88
211 639 211 75 119 154
213 635 211 119 51 65
215 635 211 108 94 109
213 638 211 86 130 165
215 638 211 85 136 174
217 626 212 193 184 184
219 626 212 181 172 172
217 630 212 186 180 181
219 630 212 185 179 180
221 624 212 171 162 162
223 624 212 178 168 166
223 629 211 174 167 167
221 629 212 177 173 176
223 629 212 178 172 172
217 635 211 99 111 136
217 633 212 134 47 61
217 637 211 85 139 178
219 637 211 75 129 168
220 634 211 108 91 110
222 634 211 96 109 134
220 637 211 76 129 168
222 637 211 78 126 163
224 576 214 164 166 176
225 579 215 155 159 170
227 579 215 121 141 167
225 582 215 173 171 178
227 582 215 158 164 177
228 578 215 125 144 168
231 577 214 149 156 170
229 580 214 134 150 173
230 581 214 136 151 172
231 583 214 142 157 178
224 586 214 142 120 126
227 585 215 166 166 174
225 589 215 155 129 128
227 589 215 181 177 179
229 585 215 137 151 171
230 585 214 127 146 169
231 587 214 124 142 166
229 591 215 141 151 168
230 591 215 116 139 166
232 579 214 137 149 167
234 579 214 131 142 160
232 583 214 134 150 171
234 583 214 155 159 171
237 577 214 93 117 156
239 577 214 95 126 159
237 580 214 97 125 160
238 580 214 100 129 164
239 582 215 101 129 159
232 587 215 133 148 169
235 585 215 137 148 165
233 588 215 128 145 167
235 588 215 135 152 173
236 585 215 148 154 168
237 587 214 162 167 179
238 586 215 146 155 170
237 588 214 163 167 180
237 591 215 120 141 167
238 590 215 152 159 174
224 593 215 103 92 108
226 593 215 141 111 107
224 597 215 101 123 151
226 597 215 116 74 93
228 593 215 169 163 166
230 593 215 131 148 171
228 597 215 135 105 114
230 597 215 153 159 171
230 599 216 170 167 174
225 602 215 90 131 167
227 602 215 114 138 165
225 606 215 125 149 178
227 606 215 123 148 175
228 605 215 116 144 175
229 600 216 141 110 119
230 602 216 125 138 164
230 605 216 130 154 181
232 593 215 95 129 164
234 593 215 103 135 168
232 597 215 96 127 163
234 597 215 99 132 166
236 593 215 110 138 169
238 593 214 125 146 172
239 595 214 126 147 172
237 598 215 97 131 168
238 599 214 97 131 170
235 603 215 98 126 160
234 607 215 112 133 167
236 602 215 110 138 172
239 601 214 91 124 165
237 604 215 97 123 166
237 607 214 121 139 175
239 606 213 117 135 167
232 602 216 130 152 178
232 604 216 121 147 178
234 605 216 115 143 175
240 578 215 96 125 157
242 578 215 91 120 150
240 583 215 93 124 155
241 579 216 92 122 154
240 581 216 96 125 158
243 581 216 83 107 140
244 577 216 85 110 140
245 579 217 85 111 141
247 576 219 132 155 181
247 578 219 129 148 175
244 582 217 82 104 139
247 580 218 142 157 184
247 582 218 167 179 199
240 587 215 142 156 175
240 590 215 161 166 179
242 591 215 117 134 158
241 586 216 108 134 163
243 587 216 110 129 156
245 584 217 90 106 140
246 585 217 114 128 156
247 586 218 171 182 204
244 591 216 120 135 157
247 588 218 159 173 198
248 576 220 154 173 197
249 579 220 163 176 199
251 579 221 107 128 171
250 583 219 136 151 187
251 580 221 95 125 169
252 576 222 99 125 159
253 579 221 95 118 177
254 579 221 102 126 183
253 580 221 87 117 182
254 580 221 109 137 194
255 582 221 150 167 204
248 586 218 161 175 199
251 585 219 119 140 176
251 585 220 126 150 185
248 591 217 148 162 186
251 589 218 179 193 215
252 586 219 142 163 198
253 584 220 112 136 186
255 584 221 116 141 186
252 589 218 174 191 221
253 591 217 127 152 204
255 591 217 115 143 204
240 594 215 169 172 184
243 592 215 121 136 159
240 597 214 142 157 178
242 597 214 151 157 171
244 592 215 124 138 159
246 592 215 194 198 211
244 596 214 125 137 159
244 599 214 88 116 151
246 599 213 127 154 185
241 600 213 100 129 161
241 603 213 122 142 167
242 600 214 102 128 163
241 607 211 157 153 155
243 607 211 155 154 162
240 606 213 115 131 160
242 606 212 139 141 153
245 602 212 120 142 167
247 601 213 111 142 173
244 607 210 143 146 158
246 606 211 129 151 179
246 604 212 101 135 172
249 595 214 97 134 172
249 597 213 126 160 195
249 599 212 145 166 193
250 598 213 128 161 195
252 594 215 105 127 179
255 594 215 114 131 176
252 598 212 129 147 177
255 597 212 66 88 123
248 592 216 154 165 189
253 592 216 124 145 195
249 602 211 144 152 170
248 600 212 151 170 195
249 603 212 166 178 196
248 606 211 128 156 193
251 605 211 106 95 110
253 601 211 128 100 113
254 603 211 161 125 128
255 602 212 151 108 109
252 607 210 55 43 64
254 606 211 107 64 75
232 623 207 155 146 145
236 623 207 148 121 110
225 609 214 148 167 190
227 608 215 139 163 189
224 613 213 190 184 188
226 613 213 197 187 186
227 615 212 198 187 185
228 611 214 178 179 188
230 610 215 167 178 197
229 612 214 197 190 191
231 612 213 196 189 191
231 615 212 190 182 184
227 619 210 181 170 167
224 619 212 188 177 175
224 621 211 173 163 161
226 620 211 161 154 157
226 623 211 162 154 153
229 618 210 171 160 158
230 618 211 158 151 155
229 617 212 186 176 175
228 622 209 174 163 159
231 621 209 150 145 147
232 608 215 132 149 178
233 611 214 168 170 182
235 610 213 178 177 184
235 615 211 176 167 167
232 614 213 192 184 187
235 612 212 189 182 185
239 611 210 144 125 116
236 611 213 185 180 184
239 608 212 129 133 147
237 613 211 164 151 148
238 613 211 151 129 124
239 615 210 165 130 125
233 616 211 185 175 174
233 618 210 173 165 165
234 619 209 167 159 160
232 621 208 143 139 142
234 620 208 162 156 157
236 616 210 155 144 142
237 619 208 134 121 121
238 619 209 122 92 93
237 622 208 146 118 103
239 622 208 150 116 97
233 624 207 130 124 126
234 625 207 129 120 121
235 627 206 117 96 97
236 624 207 146 117 107
237 627 207 123 87 91
237 629 207 85 70 77
224 626 211 175 166 165
226 625 210 161 152 150
224 628 211 175 169 169
226 628 210 144 142 144
226 631 210 119 26 40
229 625 209 164 154 152
230 625 208 161 150 146
229 628 209 149 142 140
229 631 210 89 83 98
231 630 209 88 62 71
224 635 211 84 123 154
226 634 211 72 121 154
225 636 211 82 124 158
226 636 210 75 120 154
227 638 210 50 89 117
229 634 210 69 114 148
231 634 210 64 103 134
228 639 211 56 70 91
231 636 211 50 88 117
231 639 213 79 77 90
233 631 208 75 98 119
235 631 209 58 97 126
239 627 208 143 106 108
238 629 208 100 80 85
239 631 209 74 85 100
232 635 210 60 96 127
234 634 210 68 104 135
233 636 211 67 102 131
233 638 213 74 95 114
235 638 213 87 92 102
237 633 210 62 94 124
238 633 210 64 96 124
238 636 211 116 116 121
236 638 214 102 90 91
238 637 213 118 102 90
238 639 215 78 52 41
239 639 216 72 50 38
239 639 220 67 61 81
240 610 210 131 125 125
243 609 210 148 145 149
240 612 210 147 116 105
242 612 210 138 104 92
243 615 211 157 113 109
245 610 210 144 148 158
247 610 210 100 119 145
244 615 211 156 114 106
247 613 210 108 91 86
240 617 209 162 118 121
241 618 209 148 102 106
243 617 211 166 125 125
240 621 209 122 96 83
242 621 209 124 99 97
242 623 210 142 106 98
245 617 211 164 118 112
245 619 212 159 115 108
247 619 212 162 114 106
245 623 211 177 169 168
247 620 212 152 104 100
249 609 210 92 118 152
251 609 210 57 72 95
249 612 210 93 107 130
251 612 210 74 94 120
250 615 212 125 101 87
253 608 211 50 54 79
254 609 211 54 73 112
254 611 212 56 72 130
252 614 212 67 68 86
255 612 212 55 76 134
248 616 212 151 108 96
249 618 213 166 117 111
251 618 213 169 117 112
249 621 212 155 102 99
251 620 213 175 124 116
252 617 213 155 112 98
254 616 213 135 106 91
255 618 214 161 116 101
252 622 212 161 112 109
254 621 214 188 139 129
240 624 209 151 102 100
241 626 209 151 111 107
242 626 210 150 109 99
240 629 208 123 91 91
241 631 210 91 81 90
243 629 211 152 113 100
244 625 211 145 101 90
246 625 211 139 101 90
247 627 212 145 104 87
245 631 211 149 105 96
246 630 212 154 107 99
241 633 210 80 94 110
242 633 211 82 87 98
242 634 212 89 89 94
240 636 213 99 85 73
241 637 215 64 46 39
243 636 215 63 49 49
244 635 213 84 67 65
246 633 213 118 85 81
247 635 214 78 54 51
241 637 217 72 52 59
241 638 219 66 60 84
243 637 218 79 74 93
241 638 220 56 56 85
242 638 221 48 50 77
243 639 223 73 53 53
245 637 218 80 75 93
246 637 218 79 74 93
245 638 220 45 31 55
246 638 221 47 48 67
247 639 222 59 60 82
249 624 212 125 108 115
251 625 212 88 61 65
249 629 212 154 112 97
250 629 212 152 114 96
252 624 212 97 58 74
254 624 212 110 67 76
255 627 212 123 98 90
252 631 213 167 127 116
255 629 213 153 123 101
249 633 213 140 96 89
250 632 213 156 110 102
250 635 214 99 69 55
251 637 214 81 66 57
252 635 213 116 76 59
254 634 213 148 104 96
253 637 214 74 57 51
255 636 213 79 46 46
248 636 216 72 44 77
248 638 218 80 61 89
251 638 216 64 49 53
248 639 221 57 46 72
151 640 62 148 149 156
151 643 62 140 141 150
151 647 62 157 155 160
151 651 63 112 98 111
155 641 54 169 168 173
155 647 55 96 91 107
158 643 51 109 85 97
156 640 54 168 168 174
156 642 54 157 148 147
159 645 51 77 120 152
157 644 53 116 38 71
157 647 53 93 136 170
158 645 52 99 122 142
153 641 58 168 166 171
154 640 56 159 158 166
152 640 60 161 160 167
152 644 59 157 157 165
153 647 59 161 153 153
154 646 56 130 85 90
152 644 61 146 149 158
155 648 55 109 136 159
156 648 54 94 139 175
156 650 55 90 138 176
158 649 53 78 126 164
156 652 55 78 131 171
157 654 54 90 137 175
158 653 54 77 123 164
153 648 58 120 49 75
155 648 56 108 116 133
155 650 57 104 139 167
152 648 61 166 159 158
152 651 61 116 46 60
155 652 56 79 134 175
155 653 58 79 124 165
155 655 58 91 139 177
152 653 63 102 65 81
152 654 63 98 101 121
156 655 57 83 136 175
158 656 54 78 126 166
158 659 54 97 143 181
159 661 55 91 140 181
154 657 59 92 141 180
155 658 59 75 132 174
152 656 63 90 137 174
152 658 63 76 129 171
154 659 61 72 121 162
152 661 63 96 139 177
154 660 60 89 138 177
154 663 61 100 149 189
156 657 57 90 133 169
156 660 57 77 124 163
156 661 59 76 133 175
157 663 58 84 132 171
153 664 63 77 134 179
154 664 62 93 143 183
154 666 63 85 131 169
154 669 63 101 133 159
155 670 63 92 118 149
157 664 58 86 138 177
157 667 59 84 136 178
159 666 56 89 135 172
157 668 58 93 139 177
159 669 56 89 142 183
158 670 59 80 139 183
156 669 61 93 146 186
155 672 63 123 69 94
159 673 59 90 136 169
157 673 60 111 110 127
156 674 63 135 51 72
158 675 61 142 55 75
157 677 62 150 138 143
158 677 61 137 73 93
159 679 60 170 140 129
159 681 61 161 163 171
158 683 63 179 179 190
161 641 47 100 139 170
162 642 47 83 132 171
163 645 46 81 130 168
167 641 43 90 135 173
164 642 45 80 126 163
166 640 44 79 121 158
165 644 45 87 136 174
165 646 46 80 129 168
166 646 44 85 136 176
164 648 46 82 126 163
165 650 46 97 144 182
167 649 45 85 139 180
166 651 46 91 139 178
166 652 46 85 135 174
166 655 46 94 92 115
175 641 39 78 140 192
175 647 39 156 58 81
168 642 43 90 139 180
171 641 41 89 143 188
168 645 43 79 131 173
169 647 43 77 129 171
171 647 41 96 144 182
168 647 44 84 137 178
172 643 41 80 136 182
173 645 40 96 140 182
175 645 40 113 76 110
169 651 43 97 106 124
171 650 42 118 64 90
169 650 44 91 123 150
171 654 43 155 143 144
168 654 45 108 54 76
170 655 44 155 137 133
172 650 41 145 95 111
175 648 40 161 116 125
173 652 41 180 163 166
172 655 43 180 176 182
174 654 41 188 182 189
160 641 49 105 119 134
160 643 50 89 122 148
160 646 49 94 137 172
162 644 48 84 134 172
160 649 51 92 138 175
161 651 50 86 138 178
162 651 49 81 134 175
161 653 50 87 134 172
163 652 48 92 141 179
163 655 48 103 143 177
164 654 48 98 141 177
166 657 46 120 97 101
167 659 46 123 86 92
167 664 47 105 145 180
169 658 45 167 157 157
171 656 44 179 174 177
169 660 45 145 102 116
168 663 46 113 116 141
171 660 44 157 146 155
172 657 43 179 176 182
173 659 43 187 183 190
174 659 42 192 186 194
173 663 43 201 181 187
174 663 43 210 197 204
172 663 44 178 134 140
169 665 47 91 138 175
171 664 44 150 86 98
170 667 46 94 143 181
170 669 46 92 142 184
171 671 46 80 136 181
174 667 43 129 98 128
172 666 45 121 111 137
175 668 43 104 124 162
173 671 45 86 148 199
175 668 44 99 120 160
161 656 50 72 127 168
162 657 50 95 143 181
163 658 50 97 143 180
160 659 53 89 144 185
163 661 51 80 129 167
160 661 53 97 148 188
161 663 52 92 135 170
164 657 48 102 133 162
165 659 48 93 108 132
164 661 50 96 143 181
166 662 48 95 137 171
161 664 53 90 136 175
160 666 55 98 144 183
163 664 52 86 137 176
160 669 55 95 148 190
162 669 53 84 139 181
163 670 53 95 143 182
164 664 50 92 141 180
165 666 50 95 145 185
166 666 49 98 150 191
165 668 50 85 136 177
167 668 48 85 140 182
166 670 51 96 147 188
165 671 52 91 146 188
168 667 48 87 142 184
169 671 48 93 141 182
176 643 38 72 141 192
178 640 38 86 147 197
176 644 39 73 120 162
177 646 39 115 138 166
178 647 39 104 102 132
180 642 37 68 131 182
182 642 36 79 142 194
180 645 37 86 150 200
180 646 38 96 159 211
182 646 37 77 148 203
176 650 39 185 162 162
178 650 39 163 60 69
179 653 39 182 173 177
180 650 38 152 72 90
183 648 37 102 156 199
183 651 38 129 70 96
180 655 39 200 189 193
183 653 38 166 56 82
176 651 40 201 189 190
176 654 41 196 188 194
186 641 35 97 156 205
184 643 36 83 151 205
187 642 36 81 148 200
184 647 37 90 152 200
187 645 36 92 143 187
189 641 35 80 144 199
190 642 35 83 149 201
191 644 35 88 152 206
189 647 36 92 155 206
184 648 37 83 146 197
186 648 36 90 156 207
187 650 37 86 154 206
184 654 38 159 100 105
186 654 37 70 102 152
188 650 36 71 137 191
191 649 36 96 155 200
189 653 37 92 157 210
191 652 36 84 149 203
180 656 39 203 193 194
182 656 38 185 170 172
183 658 38 151 27 92
183 660 39 85 126 160
176 657 41 176 174 185
177 659 41 181 176 186
179 659 40 180 150 163
177 663 41 174 108 125
178 661 41 179 133 147
180 658 40 201 175 180
181 662 40 102 127 156
177 664 42 156 91 115
178 664 41 136 107 128
179 666 42 99 155 202
177 671 43 83 153 209
178 671 43 88 157 212
180 664 41 103 149 188
181 667 41 63 125 184
183 666 40 87 155 210
181 670 41 82 149 204
183 668 41 77 148 206
185 656 38 130 136 162
186 656 38 96 146 186
184 660 39 87 154 203
185 663 39 93 160 214
187 662 39 98 161 211
188 658 38 96 153 201
190 658 37 117 162 202
189 660 38 86 153 205
190 660 38 74 141 196
184 664 39 90 157 210
187 666 39 76 138 190
189 666 39 90 151 203
190 667 39 85 155 212
191 668 39 85 150 204
184 666 40 85 156 212
184 669 40 84 158 215
185 671 40 65 136 190
187 670 40 71 143 198
189 671 40 75 145 205
172 672 46 83 146 195
173 674 46 95 154 201
175 673 45 86 154 207
172 676 47 84 135 177
174 676 46 88 148 196
175 678 46 90 157 209
175 682 47 86 147 197
162 673 55 91 144 185
163 675 55 83 139 183
166 672 51 94 147 188
167 675 51 77 131 175
165 674 52 85 136 177
166 675 52 94 141 180
164 677 54 89 147 191
165 679 54 97 154 196
166 679 53 87 147 192
161 673 57 95 140 178
160 675 58 97 128 156
160 677 58 142 70 88
161 679 58 139 57 90
162 679 57 118 106 129
165 681 54 105 134 158
167 681 52 86 140 181
166 683 55 144 75 90
167 685 55 142 25 67
161 680 59 154 118 117
163 680 57 121 69 99
163 683 57 159 109 101
160 682 60 166 167 175
162 684 59 181 175 177
163 687 59 162 165 177
160 685 63 177 175 182
161 687 62 184 180 187
164 680 56 108 105 122
164 685 57 164 156 157
165 687 56 197 187 184
168 673 49 91 148 192
169 675 49 90 148 193
170 675 48 76 135 182
168 677 51 97 152 194
170 676 48 87 141 185
171 678 49 85 144 190
172 679 48 87 150 198
169 682 51 81 140 185
170 682 50 89 148 192
168 682 52 92 140 179
171 686 51 102 156 198
169 686 53 122 78 95
170 686 52 113 139 169
172 681 49 87 149 196
173 683 49 99 152 195
173 684 49 101 155 198
172 687 51 97 147 185
175 685 48 92 157 207
167 688 55 191 179 174
161 689 62 172 173 182
163 689 60 184 182 190
162 690 63 153 157 171
163 692 62 193 189 197
165 688 57 191 187 192
164 690 59 195 190 196
166 689 57 183 179 185
166 691 58 190 184 189
167 693 57 176 173 182
167 694 58 185 182 189
165 693 60 174 172 181
164 695 62 154 160 176
165 697 61 189 185 193
164 699 63 186 183 191
167 697 60 191 187 195
165 700 63 186 184 194
167 701 62 187 187 197
168 688 55 181 162 153
169 690 55 173 168 172
170 689 54 165 135 132
169 692 55 193 188 192
171 693 55 188 183 186
173 688 51 101 139 171
175 689 50 96 130 160
172 689 52 136 72 97
173 691 53 149 79 94
173 692 53 151 111 121
172 695 55 170 171 181
174 694 53 168 150 152
168 693 56 192 187 191
169 695 56 179 176 183
172 696 54 166 166 176
173 699 55 183 178 184
175 698 53 169 169 180
173 701 55 176 171 178
174 703 55 182 181 191
168 697 58 172 172 181
169 699 58 178 177 187
171 697 57 185 184 193
168 698 60 190 186 194
170 701 58 186 184 192
168 700 60 175 176 188
169 703 60 186 182 189
173 700 56 183 177 183
174 703 56 182 181 191
179 674 43 73 137 190
176 674 45 93 159 211
179 676 43 101 158 207
177 678 45 90 159 214
178 678 44 82 151 210
180 673 43 78 149 205
182 672 41 85 157 214
183 674 42 78 154 211
181 679 43 83 159 217
182 678 43 80 157 213
177 680 45 82 154 212
176 682 47 86 149 199
179 680 45 86 159 217
179 683 46 78 146 202
178 685 46 87 155 211
179 687 46 105 138 174
181 680 44 76 149 208
182 681 44 81 154 210
180 684 45 90 158 213
181 686 46 127 106 140
182 687 45 168 145 148
184 674 41 87 156 211
186 673 41 78 143 197
187 675 41 82 156 212
185 678 43 82 138 183
186 679 42 103 103 132
188 674 41 84 156 212
191 673 40 92 124 168
189 676 41 92 101 140
189 679 42 162 60 72
191 678 42 200 184 182
186 681 43 152 56 86
184 681 44 98 128 156
184 685 45 148 105 97
186 684 44 197 183 180
187 687 45 207 198 206
189 682 43 184 187 200
190 682 43 199 197 208
188 684 44 202 194 202
190 684 44 177 179 193
176 685 48 86 156 210
179 688 47 120 128 160
181 689 47 176 152 159
183 689 46 192 192 200
182 692 47 201 195 205
184 689 46 174 175 192
187 688 45 212 206 212
184 692 47 203 196 205
186 692 46 203 194 202
187 694 47 205 197 206
188 691 45 197 193 204
191 689 45 197 191 203
188 693 46 205 197 206
190 692 45 166 171 192
190 695 47 204 197 207
189 697 47 202 197 207
191 699 47 192 188 201
176 690 49 115 127 155
179 689 48 136 114 140
176 692 51 148 50 85
178 692 49 151 99 120
178 694 50 175 162 164
177 695 52 200 192 199
180 694 49 189 186 198
182 694 48 166 169 191
179 696 51 194 189 199
176 697 53 163 165 179
178 697 52 179 175 189
177 701 53 182 180 190
178 701 52 161 160 180
179 703 53 199 195 205
180 698 50 202 195 205
183 696 49 201 196 206
180 700 51 199 190 203
182 700 50 204 197 207
183 702 51 202 197 207
184 694 48 207 201 211
184 698 49 203 199 213
186 698 48 169 170 195
185 700 49 192 190 204
186 700 49 194 192 207
186 703 50 206 199 211
189 699 48 192 190 205
188 702 49 192 189 205
190 702 48 156 167 193
134 647 78 70 95 124
131 650 77 104 126 158
128 655 75 99 120 174
131 655 74 111 134 176
129 653 79 92 106 123
128 655 79 89 106 125
130 652 79 86 99 115
132 649 79 79 104 136
133 650 77 60 100 135
134 648 78 68 96 129
132 653 75 85 119 155
133 655 74 28 74 123
134 654 74 71 99 126
139 642 79 71 98 126
137 646 77 80 96 125
138 646 77 106 118 138
140 643 79 69 99 130
142 642 79 62 93 126
141 644 78 105 120 138
141 647 78 91 108 128
142 647 77 77 94 115
137 651 74 104 115 130
137 648 76 125 133 145
139 649 76 125 130 141
137 653 74 102 117 134
138 653 74 133 139 152
139 655 75 133 134 142
141 650 76 114 119 129
142 650 76 93 103 117
140 655 75 120 124 133
142 655 75 48 81 106
135 643 87 64 65 73
134 647 82 64 82 101
134 646 87 58 69 81
128 642 91 90 77 65
131 640 91 81 70 61
128 640 92 90 76 63
129 645 91 82 73 68
131 645 89 72 68 67
131 647 88 61 67 76
132 640 90 79 70 62
132 642 90 73 65 62
134 642 88 63 58 60
133 644 88 73 65 61
134 644 88 64 62 68
131 651 81 73 83 97
130 653 81 80 88 99
130 654 82 81 86 94
131 655 84 74 83 94
133 648 80 62 86 113
132 650 82 74 83 101
134 649 82 69 81 96
135 650 83 71 79 89
134 648 87 54 68 82
135 650 84 72 80 92
135 651 86 71 80 91
133 653 85 74 82 92
132 654 85 76 85 96
129 648 89 63 60 70
129 650 88 58 60 68
131 648 88 58 66 80
129 652 88 48 55 64
129 655 88 44 51 61
132 649 88 59 68 85
137 641 82 77 96 116
136 643 83 57 73 90
138 641 81 78 97 118
137 641 84 60 75 94
137 642 85 52 60 80
136 644 80 49 78 101
136 644 84 57 71 86
136 644 87 58 62 75
136 646 86 58 71 85
136 648 84 71 79 90
134 663 71 112 132 161
129 658 73 104 133 178
131 657 74 83 117 159
128 661 73 61 99 181
130 660 73 104 128 169
131 662 73 89 113 147
132 658 73 49 91 134
135 657 73 144 149 158
132 660 72 55 91 135
133 663 72 152 157 169
131 666 71 147 155 169
131 671 71 156 160 177
133 667 71 169 169 176
135 667 71 52 98 169
132 670 71 115 120 152
135 669 71 84 115 171
128 664 74 41 88 179
130 665 73 104 123 161
131 666 72 132 144 159
128 668 74 57 86 162
130 670 72 154 158 172
137 657 74 117 137 159
139 656 74 102 115 137
139 659 74 112 125 141
136 663 72 106 124 156
139 660 74 113 124 140
140 656 75 111 118 130
142 656 75 19 69 104
140 660 74 126 136 149
141 662 75 64 92 134
142 663 75 10 40 99
136 671 71 113 133 177
137 666 72 101 118 152
138 666 73 93 116 147
137 669 72 89 119 162
139 668 73 66 98 134
141 664 74 40 66 110
141 667 74 25 40 89
143 667 74 57 92 151
141 670 73 90 107 151
142 671 73 101 122 181
129 657 81 73 80 95
128 659 83 86 89 100
129 657 87 49 58 69
128 659 86 74 78 84
131 656 85 72 81 92
130 658 86 77 83 92
129 656 88 41 48 59
149 642 66 135 136 144
150 640 66 137 139 147
148 640 69 118 120 128
148 641 70 115 117 125
148 642 71 108 111 120
149 646 67 131 135 146
150 645 66 146 145 152
148 644 68 126 130 138
148 645 70 113 121 139
148 646 71 99 112 138
147 641 73 99 107 122
147 643 72 96 105 123
144 640 77 59 85 111
144 642 77 74 97 120
145 644 75 75 100 124
146 644 74 66 94 124
147 647 72 63 88 130
144 644 77 87 105 124
144 647 77 100 112 125
147 651 71 42 59 115
150 649 65 114 122 140
150 651 65 121 127 141
148 649 69 124 132 150
148 649 71 97 111 140
148 650 71 94 105 134
150 653 65 113 94 111
150 655 65 99 82 106
150 655 67 102 87 104
148 652 71 46 59 111
148 654 71 48 72 116
145 649 74 82 107 135
146 649 73 78 102 150
146 650 73 59 97 155
144 648 76 107 117 133
144 654 75 36 80 121
147 653 72 20 45 105
146 654 74 8 50 112
150 656 66 83 106 131
151 659 65 91 138 179
149 656 69 124 123 139
149 658 68 91 95 127
149 659 71 94 66 108
151 660 67 83 140 185
149 662 71 97 81 101
150 661 70 91 145 188
150 662 70 93 139 182
145 656 74 29 50 116
147 656 72 27 61 110
146 659 74 19 48 108
144 662 74 35 58 115
147 661 74 43 71 118
148 658 73 54 82 116
149 661 72 100 85 104
148 663 74 68 87 115
150 665 70 108 77 97
150 667 71 148 119 135
151 668 71 154 126 141
144 665 74 66 94 151
146 665 74 95 125 162
144 669 74 125 143 188
146 668 74 150 162 186
147 670 75 79 94 146
148 665 74 126 128 139
148 667 74 145 139 149
149 669 74 166 163 172
150 669 73 190 186 200
152 659 64 92 135 175
152 663 64 81 136 179
153 664 64 79 133 177
153 666 64 90 132 166
153 667 66 104 113 142
152 669 67 131 73 94
153 670 66 136 46 72
154 670 65 123 59 91
152 670 69 157 126 148
135 644 127 93 74 63
139 643 123 79 66 57
137 642 125 88 70 58
138 641 125 86 69 60
139 643 124 79 66 57
136 646 127 84 72 63
139 645 124 56 62 74
138 647 126 49 64 82
141 642 122 73 63 57
142 640 122 76 63 54
140 644 123 52 57 68
142 645 123 31 61 86
140 644 124 52 57 69
143 647 124 45 70 92
137 651 127 39 71 101
138 651 127 41 69 99
139 653 127 46 70 96
141 649 125 51 73 94
142 649 124 54 75 94
143 651 124 46 68 87
141 652 126 53 73 92
142 653 124 51 69 87
143 655 124 42 61 80
139 662 127 35 59 90
141 657 125 50 67 84
140 658 127 37 62 88
142 657 125 50 66 83
142 661 123 31 54 73
143 662 123 26 51 72
141 661 125 42 62 81
141 663 124 20 46 69
139 665 126 25 50 78
138 668 127 51 68 88
139 670 126 59 72 86
143 665 122 38 60 81
141 664 124 21 47 69
141 666 124 39 57 79
142 668 123 38 61 86
141 669 124 37 61 87
140 670 126 58 74 89
143 670 124 34 61 88
159 641 109 61 73 106
158 642 110 58 71 102
159 644 109 58 67 100
159 646 110 59 69 105
158 651 111 63 76 104
159 653 110 64 83 108
146 640 119 56 54 58
147 644 119 16 50 74
148 641 118 44 56 72
149 643 118 25 53 79
151 642 116 36 59 84
149 645 118 31 48 76
150 645 117 37 51 78
151 646 117 41 54 79
145 641 120 56 55 59
146 642 120 44 57 72
145 646 121 36 62 83
147 645 120 24 55 77
147 654 119 44 61 76
149 651 117 20 43 73
151 648 116 48 64 82
151 651 116 41 56 81
149 653 118 33 55 75
150 653 116 28 48 76
151 654 116 37 55 80
144 651 123 47 65 84
147 649 121 42 61 77
146 650 122 47 64 80
145 653 122 46 62 78
146 652 121 48 63 78
146 655 120 43 60 76
152 642 115 41 61 87
154 641 114 53 68 98
154 643 114 40 58 90
153 645 115 35 52 86
155 644 114 41 57 92
155 646 114 45 59 91
156 640 113 57 72 105
157 642 112 52 68 100
156 646 112 54 65 95
152 650 115 46 64 84
154 649 114 42 56 87
154 651 114 46 63 91
152 652 115 41 62 85
154 652 114 46 65 93
154 655 114 56 70 94
156 648 112 46 58 90
157 651 112 59 75 103
156 654 113 66 82 105
158 653 112 59 79 104
159 658 110 82 99 118
159 664 111 84 96 111
147 658 119 29 53 73
148 657 118 38 57 77
150 656 116 31 47 77
151 658 117 29 46 76
149 661 118 30 54 78
151 660 117 41 56 80
151 663 118 42 62 82
144 657 123 41 59 76
146 657 120 37 58 76
145 662 121 29 52 76
146 661 121 20 45 70
147 663 120 32 56 81
149 666 118 63 77 91
150 666 118 58 73 89
150 669 119 50 68 85
144 665 122 46 65 84
145 667 122 69 81 94
146 666 121 62 76 91
145 668 122 70 82 95
146 668 121 68 80 94
146 670 122 48 69 88
148 669 121 58 73 87
149 671 121 39 60 79
153 658 115 57 71 94
155 658 115 69 83 105
153 658 116 51 66 89
155 662 114 72 86 101
153 661 117 52 65 87
154 661 116 65 75 94
156 656 114 75 91 110
158 656 112 74 91 113
156 661 114 84 94 109
158 660 112 85 97 113
152 664 117 52 69 87
152 666 118 48 66 84
155 664 116 79 92 108
152 668 118 33 58 83
153 670 119 40 62 87
154 670 117 57 71 94
156 664 114 75 90 105
157 666 114 69 85 107
159 665 112 78 93 111
156 667 116 61 76 99
157 671 115 63 76 98
158 669 114 48 69 98
156 668 116 57 73 99
129 673 71 165 164 171
130 675 71 168 168 178
129 678 71 175 174 183
131 678 71 175 175 184
132 674 71 182 184 194
134 674 71 177 177 193
132 678 71 140 152 186
134 679 71 139 142 188
129 674 72 162 163 170
135 677 72 130 140 189
128 683 71 161 162 177
130 683 71 131 151 185
130 685 71 131 145 183
132 683 71 135 138 184
128 687 72 132 139 179
131 687 72 123 123 181
134 683 72 144 144 189
132 686 72 140 145 187
135 685 73 174 172 194
136 673 71 121 149 193
137 675 72 79 102 177
139 674 72 88 113 185
136 678 72 118 136 191
139 677 73 140 150 212
141 672 73 95 119 172
143 672 74 75 108 186
140 676 73 101 128 199
141 679 74 100 116 187
142 679 74 129 146 188
136 682 72 146 149 191
139 680 73 169 175 203
136 685 73 193 186 194
137 686 74 192 183 197
138 686 74 197 189 199
141 680 73 138 142 190
142 680 74 186 185 202
142 683 75 201 198 204
141 684 75 178 175 196
140 687 76 182 173 195
143 686 76 132 152 201
128 690 72 54 62 152
130 690 72 131 136 180
128 694 72 152 162 187
130 694 72 154 160 194
132 690 72 184 184 202
134 690 73 185 177 187
133 692 72 160 160 187
133 695 73 191 187 200
134 695 73 150 157 191
129 696 72 117 132 190
130 697 73 110 129 183
128 700 73 104 120 188
130 700 73 119 131 194
132 696 73 168 162 189
133 699 74 199 190 195
134 698 74 192 190 200
132 701 74 191 190 202
134 701 74 182 180 197
136 688 73 194 190 200
136 691 74 191 186 198
138 691 75 196 191 199
136 693 74 191 185 199
138 693 75 181 178 195
139 694 76 173 171 197
141 690 76 133 139 193
143 689 77 98 112 191
140 692 76 165 164 197
141 694 76 96 121 190
143 693 78 136 152 204
136 697 75 195 192 201
138 697 75 146 145 185
139 698 76 111 127 190
137 702 75 126 130 191
139 701 76 149 168 210
140 696 76 103 125 187
140 699 77 122 149 204
143 696 79 66 91 190
143 699 79 108 125 195
140 703 78 63 79 186
143 701 79 130 147 190
143 703 80 166 174 202
144 673 74 63 92 189
145 675 75 186 184 202
147 674 76 133 153 185
144 678 74 128 137 184
146 676 76 192 187 196
147 678 77 112 136 183
148 674 75 91 122 159
151 673 72 175 178 192
150 674 74 181 171 189
151 676 72 184 179 197
151 678 73 189 187 205
148 676 76 104 122 161
149 679 77 33 89 128
145 681 76 85 108 193
146 680 77 99 124 188
146 683 78 61 91 162
145 685 78 87 113 191
146 685 78 77 100 171
147 686 79 94 105 150
148 680 77 31 87 152
148 683 79 100 117 142
150 682 77 111 117 148
148 685 79 81 101 132
151 685 76 181 176 197
150 686 79 54 77 105
153 674 67 151 153 169
154 672 66 159 144 141
154 674 66 180 177 188
153 672 68 188 181 189
153 675 68 162 161 180
155 677 65 177 174 186
154 679 67 194 189 203
153 677 69 192 186 202
152 678 71 176 174 192
154 678 68 197 193 205
156 679 64 178 178 188
155 680 66 156 161 177
154 680 69 197 191 205
155 682 68 195 191 205
155 683 70 181 180 198
155 685 71 200 195 208
157 680 65 152 155 169
157 682 65 166 168 180
158 682 64 170 171 182
157 684 67 191 188 201
158 685 65 154 158 176
159 687 65 176 175 189
156 685 69 198 191 207
156 687 70 189 188 207
152 681 74 192 190 204
152 683 74 187 185 205
152 685 75 181 181 203
153 687 75 187 183 200
155 686 72 200 194 207
152 687 76 156 154 176
149 686 80 40 88 120
145 689 78 157 166 206
146 688 79 120 133 178
144 694 79 74 99 191
144 696 79 82 103 189
158 688 67 175 173 193
159 690 67 192 188 201
156 688 70 191 189 208
157 690 70 196 191 207
159 691 68 176 176 190
158 693 69 203 198 215
159 695 68 198 193 210
153 688 75 184 178 194
154 688 75 190 184 200
154 691 74 178 173 194
153 689 76 164 155 176
153 691 76 119 117 143
155 692 73 185 181 197
155 694 75 109 108 131
153 693 79 59 76 109
154 694 76 76 84 109
156 689 72 166 169 190
157 692 72 192 189 201
157 695 73 155 150 173
159 696 71 158 155 174
155 696 75 66 78 104
154 697 78 54 77 127
155 699 78 71 112 173
156 696 74 96 100 123
157 698 75 74 84 107
158 699 72 86 85 119
156 698 77 50 60 103
159 700 73 67 81 102
159 702 73 69 82 104
156 700 77 61 93 156
157 702 77 80 139 189
158 701 76 55 98 146
147 689 81 96 113 151
145 693 80 122 133 196
147 692 81 126 143 173
147 695 82 93 122 173
149 690 81 44 98 135
151 689 80 42 65 100
148 693 82 59 109 151
149 695 83 39 95 136
151 693 82 37 73 149
150 695 84 33 69 115
145 699 80 160 175 205
146 698 81 156 167 197
144 700 80 155 166 197
145 702 81 146 160 191
147 701 82 124 152 191
147 700 84 71 122 164
151 696 83 35 59 116
148 699 85 22 98 145
150 698 84 20 55 102
148 701 85 54 115 159
150 700 85 29 60 104
151 702 86 24 58 101
152 695 80 97 118 163
153 696 81 84 110 185
153 698 81 48 108 190
154 696 80 92 114 157
153 700 83 68 141 198
154 700 82 58 140 203
154 703 82 64 145 211
152 703 85 69 84 129
139 674 127 87 95 106
141 673 126 60 80 101
142 672 125 50 72 97
142 674 126 35 66 94
142 676 127 70 87 105
144 672 123 30 56 86
147 673 123 43 64 90
144 674 125 37 61 89
144 676 125 45 67 92
144 679 127 25 57 84
147 677 124 25 54 82
148 672 121 28 54 77
148 674 123 46 66 88
150 673 121 39 59 81
150 675 122 36 55 78
150 677 123 51 65 82
148 676 124 23 51 78
149 679 125 51 65 81
146 680 126 57 75 93
147 682 127 65 75 87
148 681 126 58 70 82
149 683 127 56 67 79
151 682 124 79 85 95
149 685 127 59 71 83
150 686 127 54 67 81
154 672 118 57 69 89
155 674 118 82 90 101
157 672 115 72 83 95
158 674 115 78 88 100
157 672 116 72 82 94
158 674 116 84 92 104
156 677 119 81 89 101
158 676 116 83 93 107
158 679 118 91 100 111
153 673 120 60 71 88
152 676 121 66 71 85
152 678 122 80 84 92
155 677 120 83 90 100
156 679 120 99 102 109
153 680 122 86 90 97
154 680 122 89 92 99
155 682 123 96 100 108
153 683 124 90 94 102
152 684 126 81 86 94
154 684 124 92 96 103
155 686 125 89 96 106
156 682 121 93 100 110
159 681 120 91 101 113
156 684 123 95 101 111
157 687 122 89 98 109
159 686 121 87 98 113
153 688 127 69 80 99
154 688 126 66 79 99
155 691 126 49 59 89
154 694 127 55 65 89
157 688 123 69 83 101
159 688 122 67 82 103
156 689 124 61 75 99
156 692 124 37 44 81
157 694 125 53 64 90
158 695 124 72 84 104
156 696 127 72 84 103
157 698 126 84 96 113
159 697 125 95 106 120
159 698 127 98 105 117
161 643 107 63 73 105
163 643 105 71 77 108
160 643 109 58 69 102
162 645 106 70 78 110
162 647 107 66 77 106
161 645 108 68 76 107
165 641 105 77 82 115
166 641 105 79 86 117
166 642 106 75 85 116
167 642 108 65 85 114
164 646 105 76 86 116
167 644 106 73 90 123
167 646 106 34 54 110
162 651 107 65 79 110
160 649 110 61 75 108
160 651 110 63 82 110
162 654 107 75 93 118
161 652 109 64 82 109
161 654 109 68 88 112
164 649 105 74 86 116
164 651 106 63 77 112
166 651 105 59 75 114
165 652 105 61 79 115
166 652 105 58 78 117
166 654 105 66 90 118
167 655 108 62 83 117
168 643 109 61 84 117
170 641 111 65 90 117
168 644 109 69 92 121
168 646 108 33 52 107
170 644 111 70 83 118
168 649 106 67 87 115
169 648 109 47 71 115
169 650 108 57 78 117
170 649 111 77 91 122
168 653 108 48 74 114
168 655 108 68 88 118
170 654 111 61 77 117
170 643 112 78 90 123
171 645 112 87 98 125
172 641 114 59 74 111
172 643 114 63 77 110
173 641 117 89 96 111
173 643 117 93 98 113
173 644 114 77 87 116
173 647 114 71 93 119
173 645 118 90 98 111
173 647 118 98 107 118
173 641 122 120 123 132
173 643 122 120 121 128
173 641 126 92 105 121
173 643 126 111 120 132
173 645 122 121 120 125
173 647 122 113 116 126
173 645 126 97 114 131
173 646 127 41 79 117
171 650 112 77 88 117
171 652 114 71 90 121
171 655 113 83 100 125
172 649 113 94 108 124
172 650 114 60 86 115
173 649 117 83 97 120
173 651 116 34 67 112
172 653 115 37 72 115
173 652 118 78 91 112
173 654 117 64 84 120
173 649 120 72 92 112
173 651 120 114 119 129
173 649 124 66 89 111
173 651 124 105 117 132
174 650 126 88 113 140
173 653 123 114 120 130
173 655 123 93 107 128
173 653 127 66 91 127
173 655 127 56 77 125
163 658 106 82 100 119
161 657 108 77 95 115
161 659 108 87 102 120
162 660 107 88 103 119
161 660 109 86 100 117
160 663 110 89 99 113
165 656 105 88 105 125
165 659 106 86 101 119
166 659 107 85 101 120
164 661 107 91 104 120
166 660 107 87 104 123
167 661 109 36 61 111
167 663 110 49 71 115
161 666 109 70 93 117
162 664 109 84 100 117
163 667 109 42 67 111
161 670 111 72 92 115
163 670 111 73 91 115
164 667 109 48 70 112
167 664 109 44 68 114
166 667 110 69 92 118
165 668 111 74 93 117
169 656 109 74 91 121
169 658 109 56 73 114
170 659 110 59 74 115
169 661 110 60 78 116
168 664 111 76 95 122
162 671 112 67 86 108
164 671 112 68 77 109
166 669 112 67 80 112
166 671 113 89 96 115
167 671 116 111 116 127
171 656 115 69 93 121
171 658 114 73 96 118
168 663 112 66 89 116
171 661 113 60 81 115
171 662 114 58 77 113
172 657 116 81 98 124
172 659 116 69 86 118
172 661 115 67 85 116
173 660 119 118 121 129
172 663 118 109 114 124
171 662 126 58 83 118
173 656 122 80 97 120
173 658 122 76 96 118
172 657 127 53 78 123
173 659 125 63 87 120
173 660 121 90 106 123
173 662 121 97 109 125
172 661 125 58 83 117
172 661 127 59 82 120
168 664 112 60 83 113
168 666 113 81 95 116
170 664 115 83 96 118
171 665 116 105 113 124
168 669 115 107 113 123
170 669 115 118 122 132
171 668 117 115 119 129
171 670 117 116 120 129
172 665 116 105 111 122
172 666 118 115 118 128
172 669 119 114 117 125
171 664 126 77 95 117
170 666 126 86 100 117
170 671 120 113 117 125
171 670 123 99 107 119
169 670 125 84 97 112
170 668 125 93 103 116
170 671 124 91 102 116
172 664 123 102 113 127
172 666 122 92 101 113
172 667 124 102 110 121
160 687 64 187 185 195
161 691 64 162 165 179
161 693 65 176 176 190
160 694 67 197 192 207
162 695 64 186 183 194
161 696 67 198 193 207
163 696 64 193 190 199
162 698 66 164 166 181
160 698 68 178 174 194
161 700 67 169 163 178
162 702 67 138 142 166
161 701 68 131 129 151
161 703 69 76 86 125
162 702 68 109 116 146
164 701 65 177 177 189
165 703 64 168 169 181
160 702 73 67 81 106
161 673 114 84 93 108
162 673 114 80 91 107
162 675 116 100 107 118
161 678 117 95 101 114
162 677 117 111 114 122
163 678 118 109 115 126
165 673 115 110 116 126
165 674 117 100 109 122
167 673 118 113 119 131
167 675 119 101 109 121
165 677 119 115 120 131
167 675 120 101 108 120
165 679 120 91 101 117
167 678 120 106 114 127
166 676 127 64 81 102
167 679 124 67 83 105
160 680 119 87 99 114
163 681 119 76 90 118
161 683 120 66 84 114
161 685 120 79 95 116
163 684 120 79 97 118
163 687 121 69 79 112
163 686 126 70 80 100
164 682 120 78 94 121
166 681 121 89 102 120
166 682 121 79 96 115
165 680 127 62 73 93
165 682 126 54 67 90
167 681 124 49 67 97
164 684 120 83 100 121
165 684 123 34 56 95
166 684 122 69 85 112
164 684 126 62 72 94
168 672 117 118 122 133
168 674 119 117 120 130
169 674 120 115 118 127
170 673 121 108 115 126
170 674 123 83 98 114
168 672 126 81 93 110
169 674 125 73 89 109
169 676 121 96 106 120
168 678 122 96 108 123
168 678 124 63 83 107
161 690 122 7 34 89
163 688 123 41 55 95
161 691 126 65 80 107
162 689 127 67 78 102
162 690 126 68 80 107
160 693 125 73 89 109
161 693 126 70 87 108
160 695 126 93 104 118
166 704 63 162 166 181
170 704 59 186 182 189
169 704 60 187 183 189
168 706 62 188 185 194
170 706 61 176 174 183
169 708 63 172 173 185
170 708 61 173 175 186
171 710 61 180 182 194
173 705 57 173 175 187
173 706 58 179 180 191
174 707 57 186 185 195
173 709 59 192 188 196
174 709 58 192 189 197
175 711 58 188 186 197
171 713 61 176 181 196
170 714 63 137 156 182
171 717 63 157 173 196
175 713 59 165 165 176
173 713 60 185 182 190
174 715 60 186 187 198
173 717 62 147 166 191
174 717 60 160 169 190
175 719 60 123 142 172
175 720 61 149 165 190
174 723 63 194 192 201
176 705 55 191 189 198
179 705 53 193 188 199
179 706 54 192 189 198
179 710 55 186 182 192
180 705 53 190 186 197
180 706 54 198 193 202
183 707 52 199 195 209
180 710 55 197 193 205
183 708 52 201 198 211
183 711 54 192 193 210
177 709 56 190 185 194
178 711 56 179 179 191
182 712 54 189 188 205
183 714 55 169 179 206
176 713 58 184 182 191
178 712 56 199 196 203
179 714 57 191 188 199
177 717 59 189 188 198
179 716 58 200 196 204
176 716 60 192 191 203
180 714 57 200 195 204
181 716 56 170 177 199
180 719 58 124 142 173
183 718 56 150 170 206
184 706 51 203 199 211
186 706 51 174 174 196
187 708 51 138 164 202
184 711 53 173 180 206
186 711 52 133 158 205
189 705 50 129 145 183
190 705 49 106 138 189
191 707 50 155 179 212
189 711 51 136 165 209
191 710 51 138 161 210
185 712 53 126 148 196
185 715 54 159 181 216
186 715 53 141 167 213
185 716 54 148 173 214
187 716 53 104 141 193
187 718 54 158 178 216
189 713 52 131 167 213
190 713 52 145 177 215
189 716 53 115 150 192
190 716 52 139 168 204
191 719 53 144 165 204
178 722 59 143 163 193
177 721 60 139 157 183
178 720 60 139 159 188
176 724 63 184 189 204
177 726 63 162 174 196
178 726 61 140 160 190
181 720 57 170 185 208
181 722 58 166 177 206
183 721 57 155 171 208
180 724 59 159 176 202
182 724 58 152 163 205
183 727 58 144 164 203
181 727 60 160 175 205
179 729 63 127 138 160
183 729 59 155 172 208
181 730 61 172 175 192
182 729 60 144 160 194
182 731 62 197 196 209
183 732 60 166 179 208
182 734 63 177 176 190
185 720 55 127 142 205
186 722 55 119 131 200
189 721 54 179 188 216
191 720 54 126 153 200
189 724 55 180 188 216
184 723 57 140 146 203
185 724 56 132 139 203
185 726 58 135 155 204
187 726 56 140 148 202
188 726 56 154 166 210
190 726 56 128 153 199
185 728 58 142 168 209
186 728 58 149 174 218
187 731 59 177 195 224
184 732 60 163 179 210
185 734 61 180 185 207
187 735 60 151 166 202
188 731 58 147 175 215
191 730 57 157 180 216
189 732 58 146 171 215
190 733 58 141 167 212
191 735 59 142 169 209
183 738 63 197 191 202
184 739 63 198 192 204
187 737 61 178 182 205
185 740 63 192 189 203
186 742 63 191 189 202
188 737 61 163 174 202
188 739 62 198 195 212
191 739 60 194 202 220
188 742 62 178 188 208
191 740 61 190 200 219
187 744 63 197 194 207
191 744 62 161 184 212
128 705 74 171 167 195
131 704 73 164 173 203
131 707 74 199 192 201
129 710 75 151 152 188
130 711 75 173 170 191
132 707 74 159 163 186
134 706 74 173 170 199
133 708 74 162 158 189
134 709 75 146 147 194
135 709 76 91 119 192
130 713 75 195 196 208
129 714 76 180 184 207
128 717 77 134 137 197
130 716 76 107 118 189
131 719 76 67 102 192
134 712 75 85 114 196
135 712 76 66 110 195
133 716 76 66 104 196
135 716 76 81 116 197
135 718 77 60 103 197
136 706 76 172 178 206
139 705 77 54 95 188
136 709 76 82 111 197
137 711 76 42 81 182
138 711 77 82 121 198
140 705 78 142 158 201
141 706 79 173 183 211
142 707 79 122 139 190
141 710 78 147 152 188
136 713 77 67 110 184
138 712 77 70 111 196
138 715 78 37 84 178
137 717 78 88 124 199
139 716 78 37 74 178
139 719 79 70 120 196
140 715 79 103 133 194
142 708 80 96 114 186
142 711 81 135 160 189
140 715 80 165 175 212
142 713 81 171 179 209
143 714 82 113 138 198
141 717 81 133 150 201
141 719 82 117 130 202
142 718 83 118 137 204
143 718 84 76 103 196
129 723 77 94 111 163
131 721 77 80 116 193
129 724 78 65 98 186
130 724 77 69 108 174
131 726 78 49 91 181
132 723 77 51 101 192
134 723 77 116 139 200
132 726 77 79 121 187
135 724 78 159 174 206
128 728 78 76 109 168
129 730 79 94 121 181
130 731 79 98 119 186
131 732 79 108 138 200
132 731 79 60 86 196
135 728 79 161 175 209
136 720 78 97 137 201
137 723 78 143 157 191
136 724 79 144 161 213
128 731 80 124 135 180
129 734 80 166 169 197
131 735 80 145 167 203
135 731 81 76 118 205
132 735 80 104 129 206
134 733 80 92 117 204
134 734 81 94 122 206
135 733 85 92 128 205
135 735 86 94 132 187
139 722 81 123 156 211
137 726 81 62 103 205
139 724 81 92 121 201
138 726 83 59 96 194
139 727 84 83 114 185
141 720 82 112 133 204
140 723 83 47 101 202
141 722 85 68 110 203
143 720 86 140 157 214
143 723 87 150 167 212
141 724 86 70 102 210
141 726 86 46 89 207
142 725 88 102 115 198
143 727 89 96 111 174
137 728 83 39 90 189
138 728 83 58 103 196
137 731 86 119 144 191
138 730 85 120 141 204
136 732 85 100 132 199
136 735 86 105 142 196
138 734 87 114 133 180
139 732 88 103 121 162
140 730 88 84 117 155
143 729 89 37 69 153
141 732 88 127 138 163
141 735 88 101 125 156
143 734 89 89 116 141
157 706 79 67 140 205
158 705 78 55 136 197
