ply
format ascii 1.0
comment Created by Open3D
element vertex 2050
property double x
property double y
property double z
property uchar red
property uchar green
property uchar blue
end_header
299 700 197 145 133 129
298 703 199 136 116 112
300 699 195 110 106 108
303 699 192 113 112 118
301 701 194 125 106 113
303 700 192 116 111 113
302 702 194 113 87 83
299 696 200 123 114 116
298 698 203 114 97 103
297 697 206 160 135 129
297 699 206 106 99 106
298 700 201 111 113 120
298 703 201 122 94 90
296 701 206 125 107 102
296 702 207 138 120 107
289 689 209 136 39 20
290 691 209 159 65 27
288 695 210 140 55 22
291 694 210 165 70 23
294 688 209 159 69 30
292 692 210 170 75 20
295 692 209 158 68 25
289 696 210 142 57 41
291 697 210 141 88 65
288 702 211 140 125 113
291 702 211 158 127 108
294 696 209 171 108 39
295 699 208 118 106 103
293 703 209 162 125 101
295 701 208 123 113 112
296 689 209 149 68 38
298 690 208 135 89 70
296 697 208 146 96 78
307 673 192 140 129 146
307 674 193 138 132 156
305 675 199 139 53 76
306 674 198 125 66 76
305 678 193 106 65 86
306 677 192 80 69 105
305 676 197 127 50 74
304 679 196 143 61 72
305 674 203 140 69 77
306 673 203 136 63 72
305 673 205 96 65 98
305 675 204 145 88 108
305 677 201 158 86 91
304 679 201 146 48 58
304 676 206 105 47 85
304 680 195 139 61 68
306 680 192 145 115 94
304 686 192 157 110 72
304 699 192 116 120 133
262 766 191 206 149 120
265 767 190 205 148 120
266 766 191 204 147 119
270 763 190 199 141 115
268 765 190 202 143 117
268 766 190 203 144 117
271 766 188 200 145 114
285 748 191 201 162 129
285 750 190 205 156 122
286 751 188 203 153 124
274 758 191 202 146 116
278 755 190 202 148 117
277 756 191 201 145 115
279 756 189 199 145 114
279 759 188 198 144 112
272 760 191 202 147 118
273 763 189 201 146 115
274 762 188 201 146 116
272 767 187 201 144 117
275 765 187 199 144 114
272 765 188 201 146 115
277 762 187 199 143 112
279 763 184 199 143 110
276 762 188 201 145 116
276 767 185 199 145 116
278 766 184 201 146 115
287 757 182 196 145 112
283 754 187 199 146 114
280 755 189 200 146 115
282 752 191 205 153 123
280 759 186 198 144 111
283 757 186 197 145 113
280 757 188 198 144 113
285 755 185 198 147 115
286 752 187 202 152 118
284 752 188 202 151 121
284 757 186 197 144 112
283 761 183 198 143 113
280 765 183 199 145 113
282 765 181 198 143 113
283 766 181 198 144 113
284 761 183 198 145 114
286 760 181 196 143 110
285 765 179 197 146 112
287 765 178 196 144 112
284 765 180 197 145 112
281 761 185 199 145 111
283 760 184 197 142 110
300 733 191 147 145 147
303 733 189 190 173 162
303 735 188 154 121 108
307 704 191 130 96 88
307 709 191 95 92 103
309 704 190 114 86 83
310 705 189 138 107 77
311 707 189 133 111 93
308 711 190 158 152 152
310 710 189 126 121 121
307 715 191 156 142 138
309 712 190 159 146 139
310 713 189 182 168 161
311 715 189 166 152 143
308 718 191 151 134 120
310 718 189 143 124 108
319 709 183 107 97 98
314 704 186 123 113 108
312 704 188 133 115 107
312 710 187 60 60 66
315 709 186 108 99 104
312 709 188 107 98 96
316 707 185 120 85 86
316 708 185 131 111 108
317 711 184 126 120 123
319 712 182 73 78 95
317 719 183 145 129 117
319 718 182 151 142 139
313 715 186 46 55 65
314 714 186 89 91 96
313 717 186 93 95 99
315 717 185 170 151 138
314 719 186 140 127 117
316 715 184 150 133 121
307 721 191 156 136 119
305 727 191 204 177 154
306 726 190 174 148 124
308 720 190 172 159 150
308 723 190 142 117 95
310 723 188 168 141 114
311 726 186 201 158 106
308 726 188 145 113 82
307 731 187 179 168 162
305 731 189 95 93 102
306 728 190 149 130 115
306 733 187 146 144 150
304 733 188 137 129 130
308 729 187 189 159 129
310 728 186 195 171 151
310 730 186 196 176 163
309 732 186 203 187 177
311 732 185 137 130 128
317 720 183 138 122 110
318 721 182 164 149 140
316 725 183 138 113 85
319 724 181 189 155 118
318 727 182 190 151 103
312 723 187 190 153 110
314 721 186 171 145 120
312 725 186 201 154 93
314 724 184 141 116 95
316 720 184 130 109 93
314 730 183 174 138 99
312 735 183 137 132 131
315 734 181 193 178 169
316 729 183 161 135 110
318 729 181 186 149 108
319 733 179 54 48 60
317 733 180 141 134 134
318 733 180 98 94 103
313 729 184 119 99 88
293 743 191 129 139 154
293 751 181 189 139 109
295 750 181 187 138 103
289 746 191 156 127 95
291 747 190 185 151 114
289 750 187 205 157 122
291 750 185 201 152 117
288 748 190 199 159 129
295 747 187 169 136 111
293 746 189 201 177 158
294 744 191 143 136 134
293 749 184 196 144 118
292 750 185 200 149 118
295 748 186 191 145 115
299 737 191 107 131 153
297 740 191 127 111 107
299 740 189 125 106 93
299 742 189 155 156 162
300 737 190 138 141 149
302 737 188 183 162 152
301 742 187 118 100 85
302 742 187 139 123 111
300 743 188 132 119 110
296 751 180 182 135 101
298 750 180 175 129 93
301 751 178 161 118 90
301 749 182 156 113 85
302 748 183 149 106 77
296 747 186 164 128 99
298 746 186 178 146 112
297 745 188 119 102 91
297 748 185 178 134 104
300 744 187 160 142 128
301 747 185 198 175 155
302 747 184 172 149 128
291 766 175 193 141 106
294 763 175 191 141 109
293 766 173 194 141 109
294 764 174 192 139 107
296 759 175 189 140 107
299 758 174 186 138 105
300 757 175 183 137 103
301 758 174 183 136 102
303 758 172 183 134 101
297 760 175 189 139 106
299 760 173 188 140 104
299 763 172 191 140 104
299 767 169 196 142 109
297 764 172 194 143 108
299 764 172 193 140 106
303 761 170 186 133 100
300 760 173 187 138 103
300 764 170 193 137 104
300 766 170 196 140 107
303 766 168 196 140 107
289 755 182 196 144 112
291 754 180 191 140 108
291 758 179 189 138 105
288 758 181 196 145 112
290 757 181 192 141 107
295 753 178 184 136 101
292 753 180 189 139 106
294 753 180 187 137 103
293 759 177 189 139 107
295 756 178 186 138 106
288 753 185 200 148 118
288 762 179 193 141 108
291 761 178 191 138 107
288 765 177 193 141 107
289 766 176 195 142 111
292 760 177 189 137 105
293 763 176 190 141 108
297 753 178 180 133 99
299 753 177 177 129 95
299 755 176 180 132 97
298 756 176 183 134 101
300 754 177 177 129 96
302 752 178 162 120 90
317 751 175 120 94 75
307 742 183 103 101 105
308 741 183 111 115 123
310 740 183 97 113 129
311 743 182 93 72 54
305 738 186 74 68 79
307 738 185 171 151 148
305 740 186 84 97 111
307 740 184 153 151 154
308 737 184 173 134 135
309 739 184 132 128 129
305 746 183 157 129 97
307 746 182 184 168 156
307 751 177 141 99 77
304 749 182 140 93 68
307 749 180 133 88 66
309 744 182 117 125 138
311 745 180 125 112 102
309 751 176 128 93 65
311 749 179 122 89 62
308 748 181 177 156 138
305 744 184 91 126 156
313 737 182 140 115 99
315 737 181 152 140 132
315 741 179 59 93 121
313 742 180 153 142 137
315 742 180 100 115 132
319 737 179 162 152 147
317 736 180 91 99 125
316 742 178 58 84 107
319 740 178 135 53 58
312 747 179 131 110 93
314 747 179 146 140 138
312 748 179 146 118 91
313 751 176 118 80 61
314 750 176 124 86 63
317 745 178 117 119 125
319 744 177 143 130 124
316 749 176 159 144 133
319 748 176 98 108 121
306 755 174 169 123 92
307 758 171 178 127 96
305 758 172 180 130 99
309 753 175 145 102 76
310 753 174 143 101 75
309 757 171 173 123 93
311 756 171 164 118 88
308 756 173 168 120 90
304 766 167 196 139 107
307 765 166 193 135 104
309 762 167 189 135 101
311 767 163 196 138 108
309 766 164 194 136 105
311 764 166 191 137 104
305 760 170 184 132 100
307 760 169 184 131 101
304 764 168 193 138 107
309 761 168 186 132 98
315 758 167 169 121 89
317 759 166 170 123 91
318 759 166 167 121 90
312 753 173 134 96 72
312 755 172 153 111 82
314 754 172 135 100 75
312 758 169 172 123 91
315 757 169 155 110 80
317 754 171 113 85 63
316 753 172 121 89 66
318 753 173 115 81 58
317 756 169 133 97 73
312 763 165 192 136 102
314 761 166 183 128 96
314 762 166 185 130 98
314 767 162 195 137 107
312 766 164 194 135 105
316 762 164 187 135 101
319 761 165 178 129 99
316 767 161 195 139 107
319 765 162 188 132 100
304 752 177 158 117 86
307 752 177 145 103 76
257 704 209 91 77 64
258 704 209 91 78 70
259 707 209 104 84 73
257 710 210 111 103 100
259 711 210 76 80 95
261 707 210 81 80 87
260 709 210 82 86 98
262 709 210 83 91 104
256 713 210 104 95 91
258 712 210 117 110 107
256 716 211 163 147 135
259 716 211 176 155 139
260 714 211 181 168 160
263 714 211 157 138 123
261 717 212 154 134 118
262 719 212 154 136 120
265 706 210 73 70 77
267 706 211 68 76 93
265 711 211 99 97 97
268 704 210 63 70 86
270 705 210 73 81 91
268 709 211 44 50 62
268 711 212 86 83 81
265 713 211 166 154 148
267 712 212 50 57 64
264 718 212 153 136 125
266 718 213 142 124 108
269 714 212 139 124 116
268 716 212 114 103 94
270 717 212 150 132 118
256 721 211 150 132 119
259 721 211 128 103 81
256 725 211 178 142 110
258 725 211 163 135 107
261 721 212 144 123 103
262 723 212 165 136 105
261 725 212 144 116 84
263 726 212 201 157 105
257 731 210 154 110 71
259 731 210 196 156 112
257 735 208 206 174 143
259 734 209 187 159 130
261 731 211 170 144 121
263 731 211 204 176 150
261 735 209 207 186 172
263 734 210 203 182 167
266 720 213 131 111 94
264 724 212 193 157 121
267 724 212 176 145 110
268 722 212 159 129 99
270 723 212 177 154 134
269 725 212 205 166 121
270 727 212 202 166 127
265 731 210 206 173 145
267 731 210 205 162 114
265 734 209 172 162 159
267 734 209 163 162 168
268 731 210 208 175 142
270 731 210 201 180 165
268 734 209 203 191 188
270 734 209 189 178 175
272 706 211 105 99 96
275 706 210 111 98 89
274 709 211 71 73 89
275 711 212 47 46 48
277 707 211 100 103 110
276 708 211 81 83 88
279 708 211 71 78 89
272 712 212 163 148 136
275 712 212 64 60 59
273 717 212 151 129 108
275 716 212 153 138 128
276 713 212 127 116 115
279 713 212 154 137 125
276 719 212 178 151 124
279 719 212 154 132 112
281 707 211 80 84 95
283 706 211 100 94 94
282 708 211 37 37 54
284 705 211 118 100 83
287 705 211 95 86 85
284 711 211 163 150 141
287 711 211 182 166 156
281 712 212 140 130 125
282 714 212 134 119 107
282 719 211 163 144 129
282 716 212 167 152 142
285 715 211 155 135 118
287 715 210 150 133 123
285 718 210 173 157 147
287 719 209 152 127 105
278 734 207 125 123 130
282 731 207 218 198 186
281 734 206 207 189 178
282 735 205 177 153 143
284 731 207 118 120 129
287 730 205 220 200 187
287 735 201 163 96 104
285 733 205 148 146 149
286 733 205 184 172 167
272 722 213 152 131 112
274 723 212 171 142 110
275 726 211 182 148 111
275 724 212 198 161 118
277 721 212 183 149 112
278 723 212 198 165 131
278 725 211 176 123 69
276 724 212 217 171 114
273 730 210 176 144 119
274 730 210 207 167 124
272 734 209 88 105 133
274 734 208 194 182 177
277 729 210 206 180 158
278 729 210 175 151 134
276 733 209 218 200 190
279 733 208 121 123 129
282 720 211 177 156 139
280 720 212 154 129 112
281 726 210 166 139 116
283 727 209 204 175 149
285 723 209 132 109 86
286 721 210 157 136 118
284 724 210 175 153 133
286 725 208 126 97 76
280 728 210 180 123 75
283 728 209 211 186 165
284 728 209 206 182 162
258 739 207 184 177 175
257 742 206 186 171 160
259 742 206 155 133 117
261 741 207 102 104 111
262 742 205 186 170 160
256 744 205 159 150 146
258 746 204 179 172 171
257 750 201 148 142 142
258 751 201 167 156 153
262 747 203 151 140 135
262 744 204 108 125 144
261 748 202 113 85 73
262 749 202 109 95 90
262 750 202 132 127 128
264 741 206 160 88 97
265 742 206 177 135 131
267 743 204 70 107 136
270 737 207 191 172 156
268 740 206 172 148 144
271 740 205 182 168 164
266 751 199 212 186 166
271 749 199 118 103 111
264 747 202 116 114 119
267 746 203 98 88 87
265 749 201 82 125 158
266 749 201 95 131 162
267 751 200 207 184 167
269 746 202 132 117 108
271 747 201 167 157 158
268 750 200 212 195 185
258 736 208 165 145 129
261 736 209 197 180 170
262 738 208 174 157 145
266 737 208 126 134 147
268 738 208 185 171 164
259 753 199 132 120 116
256 758 197 155 148 147
258 758 196 204 185 172
261 754 199 102 77 78
263 754 199 150 135 124
260 759 196 187 144 118
262 758 196 185 145 120
258 752 200 126 134 146
262 752 200 152 140 134
259 761 195 198 146 119
258 760 196 177 142 116
256 767 192 207 151 123
258 766 192 205 148 120
260 763 194 202 146 118
262 762 194 202 148 121
260 765 193 204 148 120
263 764 193 201 146 116
265 755 197 197 172 151
266 755 197 188 157 128
266 758 195 201 146 120
265 757 196 197 148 121
271 754 195 207 154 124
268 755 197 195 151 124
270 754 197 190 150 129
268 758 194 202 148 118
271 757 194 202 147 118
264 760 195 200 144 117
264 762 194 200 145 117
266 763 193 201 144 116
267 764 192 202 145 118
268 763 192 201 144 117
272 737 207 174 162 155
274 737 206 174 154 144
275 738 206 162 109 116
275 743 202 143 133 133
273 742 204 109 135 160
277 737 205 123 109 118
277 738 205 162 144 145
278 738 205 179 175 176
277 742 201 108 99 96
278 741 203 114 120 128
278 742 202 127 121 120
275 751 195 201 161 133
273 750 198 201 175 150
274 751 197 198 172 149
276 746 199 121 136 154
278 746 197 153 124 102
277 750 195 182 149 120
278 751 194 204 156 125
276 750 196 181 158 136
273 744 202 162 155 153
275 744 201 113 128 146
277 744 200 100 125 149
283 741 199 171 162 159
285 739 199 149 161 176
285 741 197 133 131 138
285 742 197 122 143 167
287 740 198 176 172 174
281 738 202 203 190 185
283 739 201 129 134 143
281 737 204 184 117 129
281 741 201 128 99 77
284 736 203 173 166 163
285 739 200 116 136 158
281 747 195 192 171 156
280 744 198 146 135 127
283 744 196 123 136 152
281 749 194 190 160 135
283 748 193 162 136 113
285 744 195 120 125 132
287 745 193 211 184 159
287 746 192 205 180 159
286 748 192 198 161 129
273 755 194 205 151 122
275 755 192 201 145 116
274 752 196 197 158 129
273 758 192 201 144 114
276 752 194 205 153 123
278 753 192 203 151 120
295 704 207 139 118 103
295 707 206 115 116 124
293 711 206 131 113 107
294 709 207 103 94 100
291 713 207 172 144 125
291 718 206 149 128 108
292 712 207 197 177 162
292 715 207 157 130 117
294 714 205 135 119 108
294 719 203 161 140 120
293 716 206 147 123 102
294 717 204 142 123 106
298 705 199 126 113 107
298 707 198 112 104 101
299 709 196 98 92 89
299 711 197 110 105 104
300 706 195 121 104 88
303 705 192 108 93 84
300 704 196 128 96 64
300 710 195 156 141 132
302 710 194 129 120 117
297 705 201 124 105 97
296 707 203 108 101 100
296 705 204 132 104 92
296 707 205 113 110 114
297 709 202 98 105 117
296 711 203 134 120 107
298 713 199 98 91 88
298 717 199 139 123 113
301 712 195 147 128 117
303 713 194 165 153 146
300 714 196 154 137 124
303 717 194 138 118 104
301 717 197 131 115 103
300 719 198 155 128 98
296 713 202 152 134 119
297 716 200 153 137 126
297 719 200 136 116 96
289 704 211 139 116 102
291 704 210 150 114 87
288 709 210 76 68 67
289 711 210 82 77 79
291 710 209 141 131 128
293 704 210 150 107 83
292 709 208 152 143 140
288 714 210 148 135 129
290 715 208 151 131 114
288 718 209 178 152 127
288 721 207 174 136 86
291 721 205 141 116 89
290 722 206 175 134 87
288 726 207 181 152 126
290 724 206 183 134 87
294 721 203 186 159 135
295 723 202 161 132 100
292 723 205 133 100 71
293 727 203 181 150 119
295 726 200 148 130 116
290 735 199 186 178 180
292 733 199 197 178 164
293 734 198 169 140 126
294 734 197 156 144 138
290 731 202 118 122 132
288 729 206 201 178 160
290 728 205 145 127 111
289 733 202 140 136 139
291 733 201 174 161 154
293 729 201 202 180 163
293 731 200 214 196 186
292 732 201 195 179 168
298 722 199 152 129 106
297 727 198 178 138 100
299 726 197 200 169 139
303 722 194 147 121 91
300 720 198 159 129 98
302 720 196 144 124 109
302 724 195 123 93 72
303 726 194 160 125 94
301 726 196 167 142 121
296 723 201 119 98 81
297 725 200 125 102 91
296 728 199 141 116 94
296 730 198 130 118 122
298 730 197 211 190 174
297 734 194 147 92 73
299 733 194 161 154 152
296 733 196 167 154 147
301 728 195 140 122 109
302 729 192 197 176 160
300 732 193 128 133 146
288 722 208 181 145 102
305 707 192 95 85 81
305 710 192 46 40 48
305 713 192 32 33 41
306 712 192 55 52 53
305 718 193 154 136 120
306 718 192 147 128 112
304 722 193 177 145 110
306 721 193 186 155 122
304 724 194 151 127 101
288 739 197 145 149 159
290 736 198 177 176 183
291 739 196 117 91 72
290 740 195 91 62 57
290 742 194 152 138 131
290 740 196 104 75 66
294 737 194 54 86 123
294 738 194 80 106 132
292 738 196 189 173 162
292 743 192 147 148 154
294 742 192 104 132 158
288 744 194 174 165 160
292 744 192 157 146 139
296 738 193 175 179 189
338 640 128 97 107 138
340 640 128 129 132 156
342 640 129 137 140 165
341 644 128 106 113 128
343 644 129 119 124 140
344 640 129 167 166 178
347 640 128 110 124 173
345 645 129 81 99 127
346 646 129 110 120 135
348 642 129 102 121 153
351 642 128 99 122 162
349 646 129 91 106 133
344 648 128 115 121 133
347 650 128 134 134 141
351 649 128 127 132 145
325 647 189 144 177 212
327 644 191 130 172 210
323 655 183 105 143 178
326 652 183 122 156 190
320 651 187 86 144 187
323 650 187 137 170 203
320 651 188 73 141 187
323 649 189 133 170 207
320 652 187 88 143 185
322 652 185 111 156 195
323 655 184 103 145 181
325 651 184 137 167 199
326 648 187 127 165 200
325 648 188 125 166 204
335 647 183 117 148 178
329 647 186 133 172 209
329 644 189 139 177 213
330 645 188 147 180 214
333 643 191 127 159 191
332 647 185 137 171 205
335 644 187 129 159 190
335 646 186 115 150 183
335 644 189 119 150 181
330 649 182 116 156 192
331 650 182 116 152 186
328 655 182 81 118 152
331 655 180 113 142 171
333 649 183 126 163 199
335 649 181 158 181 208
335 651 180 92 140 179
335 654 179 123 152 182
333 654 180 126 158 189
329 648 186 126 166 203
323 656 183 139 167 197
322 662 183 123 156 189
324 659 183 87 119 147
326 659 182 106 70 88
325 662 183 150 83 101
327 662 182 155 60 75
321 658 184 115 148 178
321 661 184 93 138 174
323 665 183 108 103 116
325 665 183 147 25 54
327 665 182 169 100 101
325 669 183 142 37 50
326 670 182 150 61 75
321 666 184 66 121 160
320 668 184 82 129 164
322 669 184 80 109 134
328 657 182 112 69 90
331 657 180 115 135 157
329 662 181 162 69 67
330 663 181 138 51 66
335 656 179 80 132 171
332 657 180 121 147 172
334 660 179 94 138 175
335 663 178 86 136 175
329 664 181 145 58 68
329 666 182 141 40 51
329 668 181 145 55 62
330 669 181 125 55 58
334 664 179 116 148 177
335 667 179 86 134 170
333 670 179 134 151 180
335 670 178 103 145 178
333 671 180 77 83 140
342 655 175 120 161 198
345 654 175 125 157 190
349 655 174 126 165 201
341 647 183 94 136 172
337 645 184 109 143 175
337 646 184 113 145 177
338 646 184 116 148 179
338 644 189 92 131 164
340 645 187 116 148 178
341 646 187 114 149 181
343 647 187 116 150 182
341 645 191 120 151 182
342 647 190 114 149 182
338 651 179 117 156 191
336 648 182 133 160 188
339 648 182 124 155 186
337 654 177 106 151 189
338 654 176 82 140 183
340 651 179 100 148 188
340 649 180 120 154 187
341 650 180 113 149 182
342 650 180 113 148 181
341 654 176 126 163 198
344 647 187 123 155 187
346 650 179 114 149 182
345 648 182 110 147 181
346 650 180 116 152 186
345 652 176 108 147 182
346 654 176 127 159 191
349 651 183 130 159 190
349 654 176 135 166 198
350 654 178 115 152 186
349 652 182 129 159 189
351 653 183 121 156 189
345 648 186 132 160 188
346 649 187 128 159 189
345 648 189 129 159 189
347 649 188 125 159 192
348 650 185 131 160 189
348 650 188 127 159 191
350 651 189 117 147 177
350 652 187 114 147 178
351 652 190 134 161 191
340 656 175 115 156 192
341 659 174 116 107 122
342 659 174 127 95 109
340 663 174 133 64 76
342 662 173 164 62 75
339 669 175 152 59 62
341 665 174 164 86 85
342 665 173 148 72 76
340 668 174 151 49 48
341 670 174 155 77 76
343 670 173 129 39 50
344 659 172 149 168 190
347 656 174 123 163 200
346 662 171 75 124 161
344 662 172 146 125 140
349 659 171 126 166 202
349 657 172 115 159 197
351 657 173 143 179 212
349 661 170 118 155 189
350 661 170 126 163 198
345 666 171 70 96 133
347 666 171 66 112 148
345 667 172 99 103 122
346 670 171 40 56 119
345 670 172 59 59 97
350 664 169 112 147 180
349 669 169 157 186 216
350 668 169 120 156 189
336 656 178 101 145 182
338 658 176 63 127 171
336 662 178 81 134 174
337 665 177 72 119 155
338 666 176 101 88 110
337 670 177 115 106 120
339 670 176 158 78 82
323 678 183 125 49 62
325 674 183 137 19 36
327 675 182 161 79 86
325 679 182 156 85 89
326 679 182 196 148 145
320 674 185 47 79 120
323 674 184 116 90 112
322 676 184 100 109 122
322 683 183 146 104 94
322 687 183 159 119 90
324 682 183 148 79 86
326 682 181 135 45 57
325 684 182 154 89 85
327 685 180 144 115 118
321 681 184 148 125 96
322 683 184 139 102 87
321 687 184 158 136 111
329 674 181 175 134 135
330 675 181 128 63 76
329 679 180 136 90 96
331 678 180 140 79 106
335 673 178 96 137 169
332 673 180 59 56 111
333 678 179 53 45 137
334 678 178 58 67 128
331 681 179 129 44 73
329 680 181 167 130 128
331 680 180 119 24 55
331 685 178 154 96 61
328 686 180 98 31 46
332 682 178 132 90 96
334 682 177 165 144 118
333 684 178 188 161 128
335 684 176 137 94 80
334 690 175 167 125 109
335 693 174 146 96 107
333 698 175 77 96 125
334 699 175 91 111 131
333 702 175 100 110 126
335 703 173 120 104 89
322 689 183 166 129 119
320 693 183 87 82 80
323 692 182 158 139 126
324 688 182 145 82 87
326 689 180 110 58 90
327 692 179 128 86 72
324 694 181 71 27 51
327 693 180 112 67 66
320 692 184 123 110 99
320 699 183 96 118 141
322 698 182 80 96 112
320 702 183 77 84 95
323 701 182 104 88 73
324 696 181 135 117 132
325 699 180 83 75 71
326 702 179 168 155 147
325 700 180 113 104 100
328 689 179 123 80 76
331 689 177 158 123 79
328 688 180 98 34 68
328 695 179 95 112 128
330 695 177 85 88 108
332 691 176 136 115 93
332 692 177 142 123 106
329 697 177 51 40 66
328 698 179 58 75 100
331 697 177 61 49 70
328 701 178 74 92 112
331 700 177 139 140 149
332 698 176 56 53 80
339 677 175 166 83 80
341 673 174 148 59 54
343 673 173 135 61 61
340 676 175 163 83 87
341 679 174 142 45 49
343 679 173 104 51 62
339 682 175 140 36 36
337 687 174 149 73 78
338 687 174 148 83 78
340 682 174 135 32 35
342 680 174 132 66 69
340 684 173 148 73 83
341 687 172 103 29 47
351 678 167 151 32 47
346 674 171 54 54 116
345 674 172 58 52 66
347 676 170 48 61 117
345 676 172 57 46 53
348 673 170 87 119 152
351 673 168 154 138 144
349 677 169 131 158 184
351 676 168 174 141 139
349 686 167 140 27 56
351 686 166 169 89 96
346 680 171 95 54 93
347 682 170 62 53 113
345 685 170 159 113 113
347 685 169 170 148 121
348 681 169 78 96 132
350 680 168 143 113 110
349 685 168 130 54 68
337 673 176 138 80 81
338 673 176 150 67 59
337 678 176 149 51 65
337 680 176 162 72 79
337 684 176 157 72 76
336 691 174 167 102 115
338 691 173 129 74 89
337 694 173 126 74 93
339 693 172 126 78 106
343 688 171 164 68 48
340 689 172 87 18 51
342 689 172 143 74 100
342 693 170 138 105 74
340 692 172 109 63 93
337 697 173 104 69 84
338 696 172 88 38 65
339 701 171 76 96 123
336 703 172 165 148 135
341 696 170 129 115 114
342 697 169 80 84 95
343 699 169 62 48 92
341 703 169 108 108 117
343 701 168 51 42 87
346 695 167 161 122 117
350 688 166 146 20 34
350 691 166 142 33 48
348 694 167 151 62 83
350 695 165 143 83 107
344 691 169 152 115 67
346 690 168 154 126 101
345 693 169 155 130 104
346 695 168 156 128 116
347 696 167 153 86 103
345 701 167 143 148 161
346 702 167 63 62 75
349 697 166 148 90 101
351 697 165 124 73 90
348 702 165 105 94 98
350 702 165 95 109 123
344 698 168 136 135 141
352 644 128 107 122 154
353 648 128 121 131 148
352 655 180 117 155 189
354 655 181 115 152 186
353 653 186 127 159 190
354 655 184 131 161 191
352 652 189 131 162 193
354 653 188 148 180 212
355 654 188 160 190 222
356 654 187 151 184 218
359 654 187 168 194 224
357 652 191 155 188 222
358 654 188 178 201 229
361 651 191 154 182 213
361 655 184 165 191 221
362 655 184 159 186 217
361 652 189 160 187 218
364 651 191 130 163 194
365 654 184 165 192 223
366 655 184 156 183 213
365 652 189 125 158 190
366 652 190 148 170 196
353 659 171 124 163 200
352 657 174 126 163 197
355 657 174 120 159 195
353 660 169 121 157 191
354 660 169 125 161 194
357 659 171 130 167 203
357 658 174 117 156 191
359 659 174 119 158 193
357 662 168 100 139 172
358 662 168 101 134 164
359 664 167 144 90 102
358 668 167 186 116 119
352 664 169 122 153 183
354 664 168 115 153 186
353 668 169 117 137 160
355 668 168 160 89 103
356 666 168 132 92 116
356 670 168 185 101 105
361 659 175 137 174 210
361 660 171 122 162 199
362 660 171 116 159 198
360 660 172 128 166 201
364 659 175 153 185 218
365 663 169 129 167 203
367 662 170 159 187 217
364 660 175 147 181 217
367 660 174 146 173 203
361 666 166 115 143 177
363 667 166 109 155 192
363 669 165 123 157 189
363 670 166 113 145 178
367 665 167 144 175 208
364 669 166 133 168 202
367 669 165 126 165 200
366 664 168 140 174 208
355 657 176 112 154 190
355 656 181 119 155 188
357 657 179 126 162 196
358 658 178 142 172 204
356 656 183 149 178 209
359 656 182 162 190 221
361 659 176 149 183 217
363 659 177 156 185 217
360 656 183 166 192 223
363 656 182 158 187 219
366 659 176 155 181 211
364 657 180 161 187 216
366 657 180 165 192 222
367 658 180 157 184 215
368 654 187 136 163 191
369 653 189 106 130 162
370 653 191 112 131 164
371 654 191 173 189 213
379 640 189 114 91 66
383 640 187 117 93 66
381 641 191 102 82 61
382 642 190 104 84 64
369 662 171 139 169 200
368 660 175 153 180 209
371 661 175 122 155 187
372 663 172 137 164 194
374 663 174 111 146 178
370 666 167 135 169 203
369 669 166 141 174 207
371 669 166 146 172 199
373 668 167 122 137 164
374 669 167 104 86 109
368 665 168 147 178 211
371 664 170 125 161 194
373 665 170 130 160 191
375 665 171 129 159 189
373 664 172 162 181 204
375 664 174 121 152 182
377 670 167 145 162 183
377 667 170 136 162 189
377 665 175 130 158 188
378 667 173 117 150 182
377 668 169 141 164 190
378 669 170 118 151 183
379 670 170 98 142 179
380 671 169 119 150 181
380 668 172 116 150 183
381 670 172 129 158 188
383 671 173 161 179 202
369 658 179 145 174 204
368 657 181 145 173 203
370 657 181 132 156 182
371 658 181 132 156 183
371 660 177 139 165 193
372 658 183 133 161 191
373 661 177 134 159 188
373 662 177 127 155 184
374 662 178 140 163 189
375 661 180 128 157 188
371 656 184 142 164 191
372 656 186 147 169 195
374 658 185 148 176 206
372 656 188 150 173 200
375 657 189 128 168 204
377 663 177 116 149 180
376 660 183 156 185 215
377 662 182 158 186 217
379 663 183 136 165 196
378 659 187 158 182 210
377 658 189 133 151 185
379 658 190 88 116 165
378 661 184 150 178 210
379 662 185 160 184 212
381 661 186 164 186 212
382 662 185 173 193 220
380 660 188 126 156 190
382 661 188 116 149 182
383 662 188 124 152 183
378 664 178 147 172 200
379 664 181 163 183 210
380 666 178 143 170 200
380 664 181 158 180 206
382 665 181 171 188 211
383 666 180 149 174 203
382 668 178 156 176 204
375 698 159 135 33 57
377 695 159 145 24 49
382 691 159 179 104 100
382 692 159 184 111 107
376 697 159 156 60 78
379 697 159 143 32 42
376 703 159 159 86 72
379 703 159 115 27 45
381 698 159 146 48 59
380 700 158 134 62 72
381 702 158 112 24 50
354 673 167 163 49 59
352 678 167 153 33 46
355 677 167 194 118 124
356 674 167 173 68 74
359 673 166 122 79 122
357 677 166 168 115 119
358 676 166 112 91 109
353 672 168 154 58 71
354 675 168 158 20 34
352 682 166 179 118 115
355 681 166 160 69 72
353 684 166 151 51 55
355 685 164 119 49 61
357 681 165 113 66 74
359 680 164 80 79 119
359 686 163 74 66 134
357 687 164 124 40 82
361 672 166 47 57 121
363 672 165 123 154 184
361 677 165 39 60 124
362 677 165 56 87 136
365 672 165 101 147 185
367 673 165 146 174 201
365 677 164 128 161 190
366 679 164 144 101 110
361 680 164 47 64 124
362 682 164 101 132 168
361 687 163 98 99 131
363 687 162 166 113 121
366 680 163 152 69 82
365 680 164 107 112 130
365 687 162 159 96 106
352 688 165 144 37 43
353 691 164 131 53 68
354 693 163 159 109 58
353 692 164 114 26 44
354 695 164 153 116 71
359 688 163 124 115 115
357 688 164 134 39 72
357 694 163 174 140 94
359 695 162 151 119 86
352 697 164 129 97 95
353 702 163 40 27 64
352 700 164 120 113 109
356 697 163 152 129 108
358 697 162 159 133 107
357 700 162 141 124 109
359 701 162 144 100 99
361 689 162 137 107 104
362 691 162 138 41 61
361 694 162 137 44 69
363 695 161 160 70 82
365 690 161 160 86 87
366 691 161 145 60 63
365 695 161 154 91 89
361 696 161 148 63 73
360 699 162 159 76 90
360 701 161 125 58 73
360 703 162 126 103 102
364 697 161 127 51 64
367 696 160 112 26 41
365 700 160 126 87 100
367 701 160 151 119 74
369 673 165 145 141 155
370 675 164 148 61 71
369 676 164 163 73 89
370 678 164 165 37 51
373 674 164 163 73 75
375 675 164 124 95 123
375 679 163 75 84 126
368 681 163 165 55 70
371 680 163 149 59 69
369 684 162 158 61 64
371 687 161 80 26 57
373 681 163 117 57 62
375 681 162 69 84 126
373 686 161 77 69 103
374 686 161 60 70 110
376 674 164 109 102 149
379 672 166 126 162 196
377 677 163 68 102 145
379 679 163 104 152 190
381 673 166 116 153 187
382 674 167 101 140 176
380 677 164 146 177 210
383 676 165 142 166 195
383 679 164 126 159 188
383 673 169 128 153 181
377 680 162 87 112 158
379 680 163 123 162 197
376 684 162 46 64 131
378 686 161 124 151 178
381 681 163 175 189 210
382 682 163 130 131 148
380 684 162 127 145 166
383 685 161 164 18 47
368 689 161 150 70 74
371 689 161 89 35 63
369 693 161 145 78 103
371 693 160 130 48 86
372 691 161 143 97 133
374 690 161 55 45 115
372 695 160 144 110 108
375 695 160 128 92 94
370 697 160 151 106 67
369 701 160 144 114 86
370 703 160 144 125 108
373 699 160 149 113 82
372 703 160 158 113 88
376 688 161 105 133 163
378 689 160 133 104 122
377 693 160 161 101 117
381 689 160 164 21 51
382 690 160 152 32 47
322 647 194 139 173 208
320 646 198 130 165 200
322 645 199 143 178 212
326 643 195 136 174 210
327 643 196 139 176 212
324 645 194 136 174 211
326 644 193 136 175 212
324 645 197 142 175 210
323 641 203 153 187 221
323 643 202 136 176 213
321 642 204 149 183 218
320 645 201 143 179 215
320 646 201 135 173 209
325 641 202 156 188 221
326 641 201 145 181 217
327 642 200 145 181 217
320 649 193 106 158 200
322 648 192 125 167 205
329 643 194 144 176 209
331 643 195 135 169 202
329 642 199 140 173 205
328 644 192 151 179 210
334 643 192 126 158 189
333 642 197 116 153 186
335 643 196 120 152 182
329 641 201 126 164 199
331 641 201 129 162 195
329 640 204 115 151 197
332 642 200 125 156 188
334 643 200 120 152 183
332 641 204 132 159 205
336 643 192 105 139 171
336 643 196 119 149 179
338 644 194 102 136 167
338 644 197 109 141 171
340 644 193 101 137 169
341 646 195 115 147 178
340 645 196 104 138 169
341 646 199 102 134 165
343 647 198 114 143 176
338 642 203 128 150 201
337 641 204 124 153 199
338 642 204 125 152 197
339 644 202 147 160 197
340 641 204 84 111 164
343 640 205 80 100 154
341 644 202 159 174 203
343 648 193 121 155 188
345 647 198 156 172 202
348 647 198 153 174 210
351 647 198 75 120 175
346 642 203 63 93 156
346 640 204 63 119 173
345 646 200 167 181 212
349 640 203 83 149 198
351 640 203 59 136 185
348 640 204 71 140 191
349 646 200 88 115 172
345 648 193 124 153 183
347 649 193 136 159 186
345 648 197 137 160 185
349 649 195 177 191 212
350 651 192 136 161 189
348 649 197 192 203 223
351 649 196 180 203 232
353 646 199 81 106 165
355 646 199 102 125 182
357 646 198 65 99 180
359 647 199 106 137 189
354 640 203 77 135 178
352 644 200 114 136 179
355 645 201 107 139 187
356 643 203 164 189 219
358 643 202 169 188 215
356 644 202 131 161 199
359 646 200 92 113 183
353 650 195 145 186 224
355 651 193 164 196 229
354 649 196 78 140 190
357 648 195 75 111 176
359 649 193 126 160 197
356 648 196 61 93 168
360 647 199 118 144 191
366 640 197 86 108 132
364 647 199 152 161 202
361 643 202 156 171 191
362 642 202 128 148 170
361 646 200 120 140 188
362 647 200 135 150 194
365 643 200 79 114 150
364 646 201 179 192 213
366 646 201 143 164 191
361 648 195 143 166 197
363 649 195 141 161 199
361 648 197 182 196 218
362 648 199 98 113 173
364 650 194 96 125 180
367 651 194 107 126 169
365 649 198 69 75 162
366 650 197 41 61 152
370 640 195 136 144 158
368 642 199 73 104 141
370 642 197 82 106 139
370 644 198 69 103 140
372 641 195 135 145 163
375 640 194 112 109 112
372 643 197 88 112 143
372 645 198 68 99 141
374 645 197 95 116 147
375 647 198 57 94 144
370 645 200 124 144 168
368 650 197 64 62 137
370 651 196 72 59 127
369 652 192 88 106 140
370 652 195 54 50 123
371 652 197 129 130 172
373 651 199 97 130 191
375 650 198 59 100 163
373 654 193 115 140 177
375 655 193 64 90 151
373 653 196 84 101 161
375 652 198 74 111 184
376 641 193 109 108 111
377 643 195 149 159 176
378 643 194 140 150 166
379 645 195 143 153 174
376 647 197 64 100 143
380 643 193 108 115 126
380 644 194 143 154 172
382 644 193 123 128 138
383 646 194 154 165 182
377 650 198 53 99 154
379 650 197 72 110 157
377 652 198 71 111 179
378 652 198 55 100 171
381 649 195 67 98 150
380 649 196 59 99 147
383 651 196 72 111 156
381 654 197 125 158 194
374 656 192 83 116 170
377 656 194 99 104 163
378 658 192 78 88 153
380 659 192 86 113 165
382 659 192 120 140 186
382 660 192 124 142 187
332 705 175 124 126 137
333 707 175 112 93 85
334 707 174 111 100 96
332 711 175 129 83 68
335 710 173 128 90 93
331 714 175 116 110 117
331 717 174 151 139 134
333 712 174 128 91 66
335 712 173 139 115 109
335 715 173 110 104 107
333 718 173 187 168 157
334 718 173 162 147 138
320 706 182 135 116 110
322 704 182 100 104 113
320 708 183 157 137 130
321 711 182 101 105 113
322 711 181 107 105 110
327 704 179 95 89 100
324 705 180 156 139 138
324 710 179 137 117 110
326 711 178 133 118 109
323 713 179 71 62 71
321 714 180 25 26 44
323 713 180 84 79 86
320 716 181 30 30 41
321 718 180 70 67 68
325 712 179 119 107 101
326 712 178 108 100 96
324 717 178 145 130 118
326 716 177 181 169 163
327 719 176 108 95 84
328 707 177 129 110 104
331 705 176 106 114 128
329 709 177 144 126 116
330 708 176 126 105 99
328 712 177 93 76 71
329 714 176 136 134 137
328 718 176 54 47 46
326 731 175 164 126 88
327 733 175 123 89 76
329 722 175 148 132 119
330 722 175 148 131 116
328 727 175 159 135 111
331 725 174 152 128 113
332 720 173 173 154 144
333 723 173 151 134 123
334 726 171 91 79 68
332 727 173 172 155 142
329 728 174 154 133 119
331 728 173 172 146 130
329 733 173 162 139 114
328 735 174 176 145 115
331 734 172 182 147 106
334 730 171 142 121 101
333 729 172 183 157 131
333 734 171 124 104 87
335 734 170 116 100 88
323 721 179 144 124 105
321 721 181 88 83 83
322 724 179 185 167 159
323 726 179 145 125 108
321 726 180 148 129 113
324 722 178 134 115 98
326 723 176 171 156 146
324 726 177 161 141 125
326 725 177 165 146 131
320 730 179 101 84 69
322 729 179 148 133 129
320 729 180 127 108 93
320 734 179 159 145 139
322 735 177 189 174 165
324 730 176 191 150 97
324 732 177 184 161 141
328 722 176 161 147 139
339 706 171 108 112 121
336 706 173 148 146 155
339 708 170 99 95 99
336 708 172 127 115 119
337 710 172 130 112 119
340 706 170 139 144 154
342 706 168 98 115 141
341 708 170 92 98 112
343 708 168 100 107 128
343 716 167 100 89 83
338 712 171 145 118 110
339 715 170 133 117 114
337 717 170 81 82 93
338 717 170 84 92 109
340 713 169 149 113 72
341 715 169 148 131 120
340 716 169 111 104 104
342 716 168 64 50 60
345 705 167 57 66 76
347 705 166 113 100 89
345 709 166 124 120 125
347 709 166 127 112 102
348 706 165 138 130 126
350 706 164 83 92 122
348 710 165 114 104 97
350 710 164 129 135 149
345 713 167 122 103 97
347 713 166 121 90 92
345 717 167 141 127 118
347 717 166 141 110 81
348 713 166 110 77 74
351 712 165 111 108 115
348 717 165 139 107 81
348 719 166 131 120 121
350 719 165 57 45 53
341 726 167 132 119 108
343 727 167 155 138 124
339 720 169 176 166 162
336 724 171 113 104 99
337 727 170 146 127 110
339 727 169 146 127 111
340 723 168 184 167 156
340 725 168 157 141 132
341 728 167 159 142 128
342 730 167 156 134 120
340 735 167 176 142 104
342 734 166 152 128 111
336 730 169 154 134 120
338 730 169 130 112 97
336 732 170 136 117 100
338 733 168 163 132 98
341 729 168 155 138 125
345 720 167 73 75 94
346 720 166 117 119 128
344 724 167 176 159 149
346 725 165 177 165 159
348 721 165 105 108 114
350 721 164 133 134 142
350 727 163 145 139 138
348 727 164 49 55 62
345 728 165 160 143 135
345 730 166 140 125 114
345 732 165 178 164 157
344 735 166 147 120 92
347 734 164 173 145 118
351 731 163 149 130 112
350 728 164 128 123 121
351 733 162 140 123 109
349 733 164 160 146 139
328 767 158 180 130 98
332 765 159 167 122 95
334 766 159 170 124 95
336 767 158 175 129 100
339 766 159 168 125 98
342 765 159 151 120 93
349 755 159 167 148 131
348 757 159 161 141 128
350 757 159 178 161 150
345 763 159 137 146 160
344 765 159 116 97 83
345 767 158 163 127 100
347 766 158 172 147 123
348 763 158 98 116 135
351 762 157 118 124 134
348 767 157 191 174 161
350 766 157 127 130 137
323 742 175 163 143 131
325 739 174 148 145 146
326 738 174 154 151 156
324 742 174 129 77 78
326 742 173 151 124 111
321 746 175 109 98 91
322 747 174 109 92 77
320 750 174 125 108 97
323 749 174 111 94 80
324 745 174 164 145 131
326 745 173 140 131 124
327 749 171 111 117 128
325 749 173 149 137 130
331 737 171 127 109 98
328 738 173 177 166 162
330 739 172 72 56 55
331 742 170 172 158 150
328 742 172 143 132 126
333 736 171 105 85 71
335 737 169 154 136 121
333 741 169 193 176 166
332 743 170 191 174 163
335 742 168 147 140 141
329 744 171 165 153 147
331 744 170 167 149 135
328 748 171 125 133 144
329 751 170 92 121 146
330 750 170 99 101 110
333 747 169 149 138 140
335 746 168 114 111 114
332 751 168 109 93 81
320 737 177 193 177 167
320 738 178 188 171 159
323 738 176 136 132 134
320 743 176 105 89 82
320 744 176 72 51 53
321 757 166 110 81 60
322 756 167 98 71 52
324 757 165 99 74 54
326 756 167 103 75 54
327 759 165 109 83 64
321 754 171 107 69 54
323 754 170 104 73 54
322 753 172 127 88 68
325 753 171 127 112 106
326 753 170 114 104 98
324 752 172 153 136 121
320 763 163 183 129 98
323 763 162 176 127 93
322 760 164 155 111 83
320 766 161 188 135 102
322 765 162 182 132 99
325 760 163 145 105 79
327 760 163 135 100 76
326 760 164 131 97 75
324 766 161 183 134 102
326 764 162 172 124 90
328 758 165 116 87 66
331 756 167 160 142 131
331 758 166 106 79 61
335 753 166 142 137 136
332 757 167 134 115 102
332 758 166 118 92 74
335 758 165 158 138 122
328 755 168 137 108 82
331 753 169 154 151 154
332 753 168 127 114 105
329 763 161 162 119 88
330 763 161 157 114 86
328 765 161 173 125 93
331 765 160 167 122 93
332 762 162 140 103 77
335 762 162 137 102 77
334 764 160 158 116 92
337 743 167 79 80 89
340 736 167 168 134 95
341 738 166 120 97 83
342 738 166 125 105 85
340 742 166 183 155 126
342 743 165 180 164 154
337 737 169 178 152 128
339 737 168 180 135 75
337 742 168 108 96 94
338 744 166 186 175 171
339 747 166 198 182 171
337 750 166 179 142 143
339 750 165 156 149 148
340 747 165 174 163 158
342 746 165 117 121 132
340 748 165 148 140 137
341 751 164 153 139 133
347 738 163 133 110 86
345 738 164 181 146 103
347 739 164 130 108 86
344 740 165 185 147 99
346 741 164 151 133 123
349 739 163 142 118 95
351 739 162 173 140 103
348 742 163 138 116 101
351 741 162 198 159 113
344 746 163 134 130 129
346 746 162 186 164 147
344 749 163 182 166 155
346 748 162 195 178 167
349 744 161 184 157 132
348 747 162 188 172 161
351 747 160 160 123 84
349 751 160 154 150 153
351 751 160 184 169 160
336 754 166 148 144 146
338 755 165 131 140 153
337 757 164 90 125 155
339 756 164 119 128 141
343 752 163 137 79 86
341 753 164 157 141 141
340 759 163 134 145 160
343 758 161 89 67 58
337 761 163 125 97 79
339 761 162 109 89 73
339 764 160 154 112 88
341 763 160 169 146 125
342 763 160 188 171 159
344 752 163 137 104 92
346 752 161 97 100 114
347 755 161 136 94 74
345 759 160 128 112 102
347 759 160 159 150 147
349 755 160 158 135 116
345 761 160 155 147 149
366 711 159 63 51 91
366 713 159 84 99 127
365 716 159 88 98 112
367 717 158 96 93 97
362 723 159 122 103 100
362 727 159 97 96 107
365 721 159 149 109 93
367 720 158 112 100 104
364 725 158 105 79 80
366 724 158 134 110 104
361 729 159 127 118 120
362 730 159 80 74 74
360 735 159 180 164 158
362 735 158 132 124 121
364 731 158 75 83 91
367 731 157 139 133 132
364 735 158 193 178 169
367 734 157 179 163 153
369 708 159 154 152 161
370 710 159 133 136 146
373 707 159 143 70 82
372 709 159 137 102 113
374 709 159 98 28 69
369 713 158 50 53 70
371 712 158 70 41 47
369 717 158 165 146 131
371 717 157 190 174 161
372 715 157 97 99 103
374 715 157 64 83 110
372 719 157 172 166 166
375 718 157 66 76 98
377 707 159 153 109 119
376 708 159 111 42 62
379 708 158 145 112 74
380 705 158 140 79 46
383 705 158 158 124 75
380 711 158 152 134 120
383 711 158 150 123 99
378 713 158 94 91 116
377 717 157 67 72 86
378 719 157 105 113 136
381 714 158 135 120 109
383 714 158 157 113 112
382 716 157 136 118 120
369 720 157 102 100 112
370 722 157 121 98 87
369 726 157 133 98 75
371 726 157 127 81 70
372 723 156 129 115 118
375 722 156 84 90 111
373 727 156 145 123 116
368 728 157 122 110 107
369 731 156 75 77 87
371 732 155 75 65 70
368 734 156 112 100 97
373 731 155 110 105 113
373 730 156 81 70 76
373 733 155 117 114 120
374 735 154 89 89 100
377 721 156 86 104 125
378 722 156 69 77 88
376 727 156 164 138 123
379 727 156 136 115 101
382 720 157 73 61 59
381 724 156 173 153 134
383 725 156 168 161 158
378 731 155 121 81 68
378 729 156 140 101 93
376 734 155 113 115 126
378 735 154 84 84 108
381 728 156 121 108 105
383 730 156 124 120 127
382 732 155 139 123 112
353 704 163 54 52 70
352 705 164 63 68 87
353 711 163 82 95 109
352 709 164 153 166 185
357 704 162 86 98 114
358 705 162 108 108 122
357 708 163 71 86 103
358 709 162 102 92 85
354 713 163 148 141 142
353 713 164 102 94 95
355 716 163 148 120 100
352 718 164 132 114 102
356 714 163 125 115 119
358 714 162 121 118 123
356 718 163 133 95 100
358 719 161 164 144 140
360 705 162 87 49 84
362 707 161 91 110 131
360 711 161 156 148 143
363 710 160 45 43 77
365 707 160 76 75 113
364 708 161 41 59 97
367 708 160 54 46 95
361 714 161 130 130 137
362 715 160 110 116 127
361 718 160 152 139 136
362 719 160 155 123 104
364 716 160 87 104 121
355 720 162 145 126 116
352 721 164 123 115 115
353 726 163 156 143 135
355 726 162 139 125 118
357 723 162 107 114 126
359 723 161 121 111 111
356 726 162 77 63 60
358 727 161 50 48 58
352 731 162 136 122 114
354 730 162 148 136 132
352 735 162 141 125 114
355 734 161 154 137 125
357 731 160 166 142 126
359 731 160 159 136 121
357 734 161 155 136 122
359 735 160 157 143 135
361 723 160 145 123 120
361 725 160 137 122 126
368 705 160 139 122 109
371 705 160 167 133 124
358 737 159 149 134 125
356 743 159 185 151 111
359 742 158 157 137 121
355 747 159 178 151 124
354 749 159 185 165 150
356 744 159 191 158 122
357 747 158 116 77 56
359 747 158 123 96 86
357 750 158 171 135 96
359 751 157 196 174 156
361 739 158 140 125 116
363 739 158 146 124 104
361 743 158 142 120 100
362 742 158 144 121 106
365 738 157 157 137 125
367 738 156 142 128 125
365 742 156 173 147 121
367 742 156 162 141 124
361 747 157 174 141 101
362 747 157 201 158 103
360 750 156 189 162 136
362 750 156 169 134 95
364 744 157 179 144 103
367 744 156 170 146 124
366 748 155 132 108 86
364 748 156 181 147 121
352 754 158 119 120 128
354 755 157 194 179 170
353 756 158 175 162 154
355 756 157 188 171 160
357 752 157 179 160 144
358 753 156 186 170 159
359 757 155 164 155 154
356 758 156 129 123 123
355 762 155 149 137 132
352 763 156 125 125 130
355 762 156 142 135 135
355 765 155 130 112 100
353 765 156 110 90 73
357 763 154 184 168 162
359 762 154 159 144 142
357 767 153 141 140 146
358 767 153 128 138 151
363 752 155 164 118 78
361 753 156 131 104 79
360 759 155 158 149 146
363 757 154 180 161 146
364 754 154 204 180 159
367 755 153 146 93 54
364 759 153 167 159 156
366 756 154 113 63 45
366 762 151 156 149 149
364 767 150 171 163 161
367 765 150 134 119 116
360 761 154 126 123 129
362 761 154 106 101 107
361 764 153 159 134 136
362 765 152 184 139 139
365 760 153 200 183 172
366 761 152 208 189 176
370 737 155 171 157 150
369 737 156 140 130 127
370 740 155 146 128 112
369 740 156 153 135 120
372 738 155 190 174 164
374 739 154 53 40 46
372 743 154 132 114 103
374 742 154 136 124 118
369 746 155 164 143 125
371 746 154 171 150 131
368 750 154 178 148 119
371 750 153 137 112 91
373 745 154 150 133 121
375 747 153 145 128 114
372 750 153 145 119 98
374 751 152 197 156 111
376 736 154 51 47 72
378 736 154 95 101 113
376 741 153 188 173 163
379 740 153 180 161 152
380 737 154 110 104 107
382 737 154 147 127 125
381 741 152 37 24 37
383 740 152 109 109 122
378 748 151 200 186 178
378 751 151 142 112 86
381 747 151 174 156 144
382 746 150 174 154 140
380 748 151 153 136 125
380 750 150 177 156 137
382 751 148 119 103 91
377 747 153 170 153 147
379 746 152 132 118 113
377 750 152 191 162 134
375 767 135 75 74 80
375 767 138 214 192 175
375 765 140 153 120 92
374 767 140 206 191 185
379 759 141 189 143 86
383 759 137 180 164 151
380 758 141 195 154 107
381 758 142 209 169 122
382 758 140 178 132 99
376 767 128 164 143 125
378 764 128 169 144 121
377 765 134 208 156 89
376 767 134 177 162 150
378 764 134 216 158 75
381 762 129 185 160 137
382 761 128 186 164 146
382 762 129 179 158 142
380 762 134 238 191 130
382 760 135 194 172 155
380 764 132 210 169 121
379 763 136 153 117 72
377 762 141 219 172 126
378 761 141 193 140 78
378 762 140 154 103 55
377 764 138 222 191 162
376 765 140 179 142 103
380 761 138 212 173 129
370 758 151 198 174 155
375 755 151 140 101 60
373 759 150 203 163 123
374 759 149 203 170 136
368 754 153 145 87 58
370 755 153 170 145 120
368 758 153 199 174 153
371 758 152 207 178 154
373 755 152 192 139 66
373 756 152 195 146 88
368 762 150 154 149 150
370 762 149 208 189 176
369 766 147 124 117 122
370 767 145 195 177 164
368 765 149 201 183 171
373 763 145 78 73 87
374 762 145 117 96 80
372 760 149 217 188 162
374 761 148 198 174 154
372 766 145 193 178 170
377 752 150 131 105 83
378 753 149 177 153 131
379 754 149 184 152 118
378 757 147 180 149 119
379 759 144 165 139 117
376 758 148 222 180 132
381 755 145 207 176 161
382 752 147 178 159 144
382 754 146 181 156 134
381 757 144 180 146 107
376 760 146 132 74 52
353 736 162 174 151 133
354 738 161 178 149 120
353 741 161 200 168 139
355 740 160 145 120 95
357 736 160 140 120 102
356 740 160 144 122 101
353 745 160 136 106 85
352 750 160 185 167 154
384 639 116 13 69 112
387 638 119 31 65 94
384 634 123 26 75 104
385 633 124 44 74 101
386 633 125 36 68 94
387 635 124 49 72 92
386 637 120 44 73 98
387 638 121 30 63 90
390 635 127 34 74 101
389 639 120 26 67 98
391 639 122 31 74 103
391 637 125 32 76 109
391 639 124 38 78 108
393 639 124 28 77 111
394 638 127 35 82 121
384 619 141 49 82 113
384 620 139 33 74 107
385 623 137 16 64 109
386 623 138 38 73 120
386 621 140 55 87 120
388 623 138 56 104 143
388 620 143 70 100 129
390 622 141 70 102 133
392 623 140 73 106 138
394 623 141 82 110 138
384 619 146 76 110 138
387 620 144 72 102 131
384 621 148 75 115 147
386 622 148 76 110 141
388 620 146 75 109 140
390 621 145 82 110 137
391 623 146 81 106 134
394 623 144 86 112 138
384 626 134 30 62 85
387 627 134 25 59 88
385 630 130 38 65 89
387 631 130 38 67 89
387 628 133 32 60 86
389 627 134 64 101 130
388 629 132 30 63 95
390 628 135 60 106 140
391 631 132 24 78 116
388 624 137 46 100 142
390 624 137 53 104 144
391 631 143 68 84 108
389 633 129 39 73 100
390 633 131 56 90 122
391 635 130 25 77 118
392 628 135 51 98 137
393 631 134 61 104 137
395 630 135 73 111 141
398 630 135 90 115 138
392 625 138 66 106 141
394 624 139 78 110 140
395 627 137 79 111 140
393 628 136 64 107 144
396 627 136 89 116 142
398 627 138 96 118 142
396 624 143 95 119 143
398 626 141 97 120 143
399 627 143 101 121 144
399 628 138 99 120 142
399 631 143 118 122 130
395 635 130 43 70 103
394 633 133 67 106 136
393 636 129 37 86 122
394 636 130 47 86 116
397 633 133 104 117 133
399 633 134 101 120 140
397 636 131 67 90 116
398 637 130 90 109 128
399 638 130 80 105 127
393 634 143 78 86 98
394 635 143 69 80 94
396 634 142 87 96 111
399 634 142 91 100 114
399 637 142 74 83 95
385 626 147 86 103 127
386 627 146 82 99 121
384 628 145 70 83 107
386 628 145 78 91 115
388 624 147 75 101 134
390 624 147 74 101 133
