ply
format ascii 1.0
comment Created by Open3D
element vertex 2048
property double x
property double y
property double z
property uchar red
property uchar green
property uchar blue
end_header
311 745 180 125 112 102
311 747 180 118 99 81
308 751 178 133 95 71
310 750 177 122 84 59
311 750 178 121 80 55
310 748 180 117 96 78
304 746 184 137 116 94
313 736 183 180 168 162
313 739 182 181 126 133
314 738 181 150 102 94
315 741 179 59 93 121
312 741 182 153 137 125
314 741 180 136 132 133
317 737 179 111 109 119
319 736 179 174 164 160
319 738 178 176 159 146
316 738 180 142 139 139
317 741 179 137 139 147
319 740 177 144 67 69
319 742 177 158 136 129
312 747 179 131 110 93
315 745 179 112 130 150
312 744 181 99 81 66
312 749 178 158 124 96
312 751 177 119 81 59
315 748 177 184 162 145
314 751 176 120 81 60
317 744 178 148 144 146
316 747 178 143 138 138
318 746 176 76 99 119
316 749 176 159 144 133
317 750 176 133 121 113
305 754 175 168 122 90
306 755 175 168 122 91
306 759 170 181 130 98
304 756 174 176 129 97
306 757 172 177 129 97
309 753 174 147 105 76
308 755 174 164 119 90
311 753 174 133 93 70
309 757 171 173 123 93
310 756 171 168 120 90
311 758 169 174 125 93
308 757 172 173 123 93
305 765 167 194 137 103
305 767 166 197 138 108
306 767 165 196 138 109
308 763 167 192 136 103
311 762 166 190 137 103
308 764 167 193 136 105
309 766 164 194 136 105
311 765 164 194 136 104
311 766 164 195 137 106
305 760 171 183 130 98
304 762 170 189 135 106
306 762 169 188 133 101
304 765 168 195 139 106
309 760 169 182 130 98
311 760 168 180 129 96
316 757 167 159 114 84
317 759 166 170 123 91
319 758 165 153 112 83
313 755 171 150 109 81
313 753 173 127 92 67
312 754 172 143 103 75
315 753 173 125 93 67
312 757 169 170 121 90
312 758 168 172 123 91
314 757 168 165 117 85
315 758 168 168 119 89
317 754 171 113 85 63
319 754 170 105 75 56
317 753 173 116 85 62
319 752 173 122 82 57
316 757 168 153 109 81
312 760 167 179 128 96
313 763 165 191 134 101
314 760 167 179 127 96
314 763 165 190 135 102
313 766 163 194 135 106
314 767 162 195 137 107
313 764 164 192 135 104
319 763 163 186 130 99
316 762 165 185 133 101
319 760 165 172 125 94
319 763 164 185 131 99
316 766 162 194 138 106
319 764 163 186 130 98
318 766 162 191 134 102
305 752 177 153 112 81
307 752 177 145 103 76
310 752 176 126 91 67
257 705 210 131 112 94
258 705 209 94 79 68
258 707 209 122 100 79
256 709 210 120 99 84
258 708 209 121 97 75
259 710 210 94 99 110
261 705 210 95 85 85
263 704 210 107 95 93
260 709 210 82 86 98
261 710 211 63 67 78
263 709 211 61 70 82
256 713 211 113 103 98
257 714 211 156 143 135
259 713 211 142 129 123
257 716 211 158 141 128
258 717 211 156 134 118
260 712 211 69 63 69
261 715 211 204 190 181
263 714 211 157 138 123
261 717 211 159 137 119
261 719 212 152 132 117
263 718 212 151 135 123
264 706 210 88 85 91
267 705 210 69 75 89
264 708 210 124 124 138
265 710 211 81 83 87
266 711 211 55 62 69
269 705 210 75 85 96
270 705 210 73 81 91
271 706 211 74 74 77
269 710 211 104 98 96
269 710 212 124 115 110
264 713 211 166 150 139
264 715 212 160 138 118
266 714 212 152 142 138
265 717 212 133 113 95
266 717 213 140 122 106
267 719 213 151 136 125
269 714 212 139 124 116
270 715 212 153 132 115
269 717 213 133 119 107
270 717 213 142 126 113
271 719 213 172 155 141
257 722 211 163 145 133
258 723 211 145 121 101
256 725 210 176 140 109
256 727 211 165 127 87
258 726 211 168 134 95
261 721 212 144 123 103
263 720 212 159 137 116
260 726 211 144 115 82
260 726 212 139 112 81
262 726 212 178 141 97
257 729 210 185 136 80
258 729 211 199 151 86
259 730 211 193 152 103
256 734 209 190 157 126
259 733 209 199 169 142
259 734 209 187 159 130
260 731 210 185 155 125
263 729 211 197 158 112
262 728 212 184 143 90
260 735 209 192 171 154
262 734 209 200 179 164
264 721 212 174 145 116
265 723 212 185 154 129
266 723 212 151 118 90
265 725 212 172 131 89
267 724 212 176 145 110
268 721 213 162 137 112
269 723 212 181 154 127
271 722 212 154 132 111
268 725 212 199 161 115
270 724 212 183 155 128
264 728 211 196 147 84
265 730 211 203 171 145
266 730 211 190 150 117
266 728 212 139 100 65
265 734 209 172 162 159
267 733 210 177 159 146
268 728 211 189 156 120
269 730 210 213 186 163
270 730 210 204 181 163
269 733 209 210 193 182
269 734 209 213 197 190
271 732 210 169 164 168
272 705 210 121 113 114
273 707 211 104 99 98
275 706 210 111 98 89
272 710 211 135 128 132
275 710 211 35 33 42
276 704 210 120 94 72
277 706 210 105 98 94
278 706 210 87 83 81
277 708 211 110 112 119
278 709 211 128 123 125
276 711 212 133 123 118
273 713 212 173 160 153
275 712 212 64 60 59
272 716 213 161 137 117
273 718 213 132 114 97
275 716 213 157 140 128
275 719 212 157 135 114
277 714 212 155 141 133
278 715 212 158 139 126
276 718 212 155 134 114
279 717 212 151 129 113
281 704 210 110 96 85
281 707 211 80 84 95
283 705 211 116 99 83
281 708 211 33 38 55
282 709 211 20 21 29
283 711 212 154 142 135
285 706 211 100 103 111
286 707 211 143 145 160
284 710 211 159 147 140
287 709 211 132 125 124
284 711 212 169 156 148
281 712 212 140 130 125
282 713 212 103 92 83
281 718 211 143 124 108
283 718 211 167 149 136
280 719 212 136 113 96
285 712 211 175 158 145
286 713 211 168 145 126
287 714 211 147 126 108
285 717 211 154 136 120
287 717 209 159 138 120
287 719 209 152 127 105
277 734 207 155 149 149
279 734 207 158 151 152
283 731 207 200 185 178
280 734 207 191 177 169
283 732 206 166 158 157
283 734 205 174 166 163
284 731 206 92 103 120
287 728 207 194 156 118
286 730 207 162 149 143
287 735 201 163 96 104
284 733 205 140 139 145
284 734 204 143 140 143
287 732 204 209 190 177
273 721 213 148 127 108
274 720 212 151 132 115
275 723 212 192 157 119
274 727 211 148 114 83
272 726 212 144 124 114
275 726 212 154 125 89
277 721 212 183 149 112
279 720 212 165 141 120
277 725 211 207 152 77
279 724 211 150 111 86
279 727 210 160 120 99
273 728 211 150 98 63
274 728 211 166 121 78
275 731 209 214 188 167
273 732 209 152 150 155
273 734 209 138 141 151
274 734 208 194 182 177
276 729 210 216 187 162
277 731 209 194 178 169
279 728 210 161 116 95
276 732 209 214 196 185
277 734 208 136 135 140
280 720 211 155 130 114
281 723 211 156 125 95
283 722 210 165 140 115
280 725 211 130 99 70
281 726 210 166 139 116
283 725 210 214 182 150
284 720 210 158 130 107
284 722 210 151 128 106
287 721 209 152 128 105
287 723 208 147 117 85
284 726 209 173 147 125
286 724 209 132 111 90
287 726 208 150 106 69
280 730 209 181 149 119
283 728 209 211 186 165
280 732 208 180 166 158
284 730 208 193 175 163
259 739 207 145 147 153
257 743 205 159 136 124
259 741 206 170 159 153
261 739 207 143 142 146
261 741 206 147 142 143
262 741 206 165 152 146
263 743 205 169 159 155
256 744 205 159 150 146
258 745 204 172 143 130
256 749 203 89 121 148
257 751 201 145 140 142
259 749 202 145 127 120
260 746 203 153 141 132
263 747 203 127 120 121
261 746 204 128 128 133
262 746 204 85 111 136
260 750 201 113 98 86
262 749 202 109 95 90
263 750 201 141 149 161
265 739 207 140 133 131
265 740 206 148 123 112
265 743 205 149 143 143
267 741 206 182 174 173
266 742 206 178 161 156
269 739 207 143 70 80
271 739 206 159 122 114
269 741 206 181 151 148
271 740 205 182 168 164
271 742 204 183 171 166
268 751 199 209 188 174
271 751 197 147 142 142
265 745 203 185 182 187
266 745 203 137 137 142
264 744 204 133 136 144
264 749 201 93 126 153
265 750 200 145 147 156
267 749 201 116 139 162
267 751 200 207 184 167
268 746 202 120 109 108
271 744 203 127 95 76
270 746 202 123 104 95
269 748 201 156 154 159
256 736 208 203 177 154
258 737 208 165 157 157
260 737 208 121 122 132
262 736 209 203 184 171
264 737 208 206 188 177
266 737 208 126 134 147
268 737 208 203 188 180
271 737 208 188 174 166
258 754 199 132 135 142
256 756 198 175 167 166
258 756 197 211 189 171
258 759 196 187 165 149
260 755 198 177 144 115
262 754 198 78 63 76
260 757 197 175 155 140
260 759 196 187 144 118
263 757 196 184 147 120
256 752 200 128 129 136
258 752 201 148 146 150
261 752 200 142 131 126
256 763 194 202 152 121
258 763 194 202 148 120
257 761 196 169 140 116
256 764 194 206 154 123
257 767 192 207 151 124
258 766 192 205 148 120
261 763 193 201 146 117
262 760 195 199 146 118
262 762 195 201 148 121
260 764 193 203 146 117
260 767 192 205 149 120
262 766 192 205 148 120
264 755 197 186 165 147
267 752 198 205 186 173
267 755 197 188 149 120
266 758 195 201 146 120
264 757 196 193 150 122
266 756 196 194 148 117
271 755 195 206 153 123
268 754 197 190 160 140
271 752 197 118 107 106
271 754 196 202 156 127
269 759 193 203 148 116
270 756 195 205 152 123
271 758 192 201 144 116
264 760 195 200 144 117
265 762 193 200 144 116
266 760 195 200 145 117
267 762 192 201 142 116
265 765 192 203 147 119
269 761 192 200 142 113
270 760 192 201 144 114
272 736 207 174 166 164
272 739 206 182 170 164
275 737 206 143 106 98
275 738 206 162 109 116
274 743 203 147 142 145
273 740 205 142 153 168
274 740 205 143 153 168
279 738 203 168 166 170
277 736 207 153 142 139
277 739 205 190 172 167
278 738 204 179 176 179
277 740 203 135 137 143
276 742 202 176 166 164
278 741 203 114 120 128
279 742 200 118 99 86
273 747 199 147 132 124
272 748 199 157 125 108
273 751 197 193 169 148
274 748 199 197 171 150
275 750 197 202 182 168
276 746 198 147 147 154
278 745 199 106 124 142
279 746 197 169 141 120
277 750 195 182 149 120
279 751 193 206 156 123
276 749 196 172 153 137
278 748 196 189 157 129
272 744 203 170 151 137
273 746 200 98 121 144
275 745 201 103 133 161
276 745 200 93 132 165
281 743 199 126 107 90
282 742 198 155 138 127
285 739 199 149 161 176
286 743 195 103 147 183
285 740 198 172 168 170
285 743 196 101 147 184
286 740 198 184 176 176
281 737 203 198 133 145
281 739 202 187 175 168
283 739 200 107 124 142
280 737 204 170 133 125
282 737 204 193 118 139
281 741 201 128 99 77
283 740 200 164 162 167
285 737 202 189 170 168
286 736 201 182 141 136
287 738 200 139 139 143
283 746 195 128 100 94
281 744 198 156 143 133
282 745 197 167 158 155
280 749 194 201 167 138
280 751 193 205 155 122
283 748 193 162 136 113
283 750 192 209 157 125
285 747 192 195 163 133
286 744 194 169 156 148
286 747 192 198 168 141
285 744 196 106 132 156
273 736 208 178 171 172
273 754 195 206 153 125
275 753 195 206 156 125
274 755 194 205 149 121
274 752 196 197 158 129
272 758 192 202 145 115
275 756 192 200 143 114
276 752 195 205 156 127
277 755 192 202 148 118
278 752 194 205 152 120
295 705 207 124 106 98
295 706 207 104 100 101
292 710 207 196 181 173
295 708 204 116 116 121
294 709 207 103 94 100
295 711 205 99 90 93
290 717 207 158 134 111
291 718 207 160 134 111
295 715 202 155 136 118
293 714 205 164 146 134
293 715 206 182 161 148
294 714 204 119 105 93
295 716 203 152 133 117
295 719 202 160 140 124
293 716 206 147 123 102
292 718 206 135 116 97
299 704 197 125 97 72
299 704 198 125 105 89
298 706 198 119 103 98
297 711 199 95 91 90
298 708 198 108 109 117
299 711 196 160 148 142
301 704 194 132 99 72
301 706 195 131 115 107
303 705 192 108 93 84
303 707 193 75 74 78
300 708 195 118 117 119
301 710 195 152 137 127
303 710 193 41 38 46
303 711 194 122 114 112
297 704 203 123 91 76
296 706 203 117 99 86
298 705 200 124 109 99
297 704 205 139 100 76
296 707 205 113 110 114
296 709 202 146 144 148
297 710 201 147 139 135
296 708 204 103 102 106
298 712 199 89 86 85
298 715 198 108 100 93
299 717 198 131 113 98
299 719 199 149 125 100
302 712 195 177 159 149
303 714 194 150 136 125
300 714 196 154 137 124
302 717 195 124 104 84
303 718 195 127 111 100
300 716 198 129 115 103
301 719 197 173 150 133
296 713 201 155 137 125
296 715 201 142 121 99
296 716 201 153 132 112
296 718 201 145 126 114
296 719 202 165 146 134
289 704 211 139 116 102
290 704 211 156 129 113
291 707 209 109 106 115
288 709 211 77 68 70
288 711 211 153 141 138
290 708 210 78 77 91
291 711 209 166 149 137
292 705 210 154 127 108
294 704 208 156 130 112
289 713 209 146 127 116
288 714 210 148 135 129
291 713 208 175 151 130
288 716 209 183 167 156
288 719 208 185 151 114
291 716 208 164 139 120
289 722 206 186 142 91
290 720 207 169 135 98
291 723 205 150 114 84
289 725 206 196 153 104
289 726 206 190 158 124
290 724 206 183 134 87
293 722 203 190 157 122
295 723 201 139 113 87
292 720 204 159 136 115
292 722 205 135 104 75
292 726 203 172 150 132
295 725 201 153 126 107
294 727 201 192 169 150
292 725 204 127 100 84
295 729 199 131 117 113
292 733 199 197 178 164
292 734 199 163 131 111
295 733 197 96 95 102
294 735 196 179 163 151
291 729 203 141 117 98
288 729 205 204 183 169
288 730 204 210 193 183
290 728 204 136 114 98
288 733 202 167 158 154
288 735 201 135 109 114
291 733 201 174 161 154
291 734 200 166 150 140
293 728 202 194 169 145
293 731 201 213 195 185
294 730 200 188 172 164
298 721 199 150 127 104
299 722 198 173 140 100
297 726 199 134 98 67
298 725 199 148 123 102
298 726 198 175 148 122
303 722 194 147 121 91
301 720 197 150 123 95
301 722 196 156 127 95
302 721 196 139 120 102
301 727 195 154 129 109
302 727 193 172 128 84
300 725 196 192 154 114
300 727 196 197 174 156
296 720 202 138 117 97
298 720 200 137 118 99
297 725 200 125 102 91
299 731 194 137 135 140
297 728 199 168 132 101
296 730 199 83 70 84
299 729 196 212 191 176
297 733 195 195 174 158
297 735 194 146 73 74
299 732 194 158 151 149
299 735 192 125 125 135
297 733 196 203 185 173
301 728 195 140 122 109
300 730 195 166 158 158
303 729 192 204 179 159
300 733 192 132 135 143
288 721 208 170 135 92
305 704 192 125 117 111
304 708 192 118 117 124
304 711 193 42 42 48
304 712 193 73 73 74
304 714 193 115 107 103
306 712 192 55 52 53
305 717 193 126 114 106
306 716 192 86 80 77
306 718 193 141 120 101
304 720 194 147 125 103
304 722 194 169 140 109
306 722 192 185 153 121
305 725 192 204 165 120
288 737 199 143 153 166
289 739 197 152 149 153
290 736 198 177 176 183
290 739 197 141 129 124
288 742 195 142 158 177
290 741 195 112 95 95
291 743 192 145 139 138
288 740 197 135 127 126
292 738 195 173 156 144
294 736 195 165 162 164
294 739 193 113 124 141
292 736 197 187 139 138
292 738 196 189 173 162
293 740 194 171 159 155
294 740 193 142 138 144
288 736 200 154 148 151
289 745 192 158 128 102
290 744 192 134 101 78
296 737 192 167 171 179
296 738 192 189 188 195
296 740 192 158 140 126
339 641 128 100 108 131
340 640 128 129 132 156
341 642 129 114 119 137
342 642 129 135 136 151
341 644 129 105 113 130
342 645 128 95 106 126
343 646 129 77 95 124
345 640 129 173 169 181
346 641 129 127 132 162
347 643 129 95 114 149
344 647 128 106 116 132
346 646 129 110 120 135
349 640 128 111 130 173
349 643 129 94 113 148
351 643 128 96 118 158
348 647 128 112 118 131
351 645 128 90 109 142
345 648 128 128 130 138
346 650 128 131 132 139
349 650 128 133 133 142
323 647 190 136 173 208
325 647 189 144 177 212
327 645 189 130 168 204
326 647 188 145 176 207
326 651 183 131 164 197
325 654 183 107 148 184
326 654 182 102 147 184
321 651 186 113 158 196
323 650 186 134 168 201
321 649 190 111 158 197
321 650 189 97 152 195
323 649 189 133 170 207
320 653 185 100 148 188
320 654 185 98 148 188
322 653 185 118 158 195
322 655 184 103 146 182
325 648 187 120 161 199
324 650 186 128 162 196
326 648 186 114 156 193
327 650 184 108 153 192
324 652 184 141 172 204
335 647 183 117 148 178
328 647 186 130 169 205
330 646 187 143 176 210
329 645 188 146 180 214
329 646 188 145 179 214
331 644 190 141 175 209
335 643 189 115 147 179
333 645 187 123 159 193
332 647 186 126 164 200
334 646 185 119 154 187
335 646 186 115 150 183
334 644 188 113 149 182
328 651 182 98 144 182
330 649 183 116 157 193
330 650 182 106 148 185
329 652 182 86 137 176
330 653 181 105 147 183
331 654 181 113 149 182
332 649 183 126 163 198
333 650 181 129 162 194
335 649 181 158 181 208
334 650 181 130 162 194
334 653 179 143 171 202
335 655 178 101 142 178
332 654 180 124 155 185
328 649 185 118 161 199
330 648 185 129 167 202
322 657 183 116 149 182
322 660 183 95 135 171
324 656 183 128 155 184
324 659 183 87 119 147
327 656 182 83 110 138
324 661 183 129 131 150
325 663 183 157 85 95
326 663 182 143 24 50
320 657 185 98 142 179
322 656 184 101 144 180
321 660 184 88 132 168
322 661 184 105 148 186
323 668 183 132 97 98
325 665 183 147 25 54
326 665 182 149 44 54
326 667 183 141 22 39
324 670 183 152 63 73
327 668 182 160 85 94
320 665 184 67 120 158
322 664 184 95 131 160
323 667 184 131 138 151
320 671 185 63 105 141
322 670 184 91 113 134
328 657 182 112 69 90
330 657 181 129 108 124
331 658 181 126 135 151
329 663 181 153 58 64
331 661 181 128 89 98
333 658 179 135 158 187
335 657 179 71 126 167
332 656 180 121 151 181
333 659 180 130 157 184
335 660 179 90 134 170
335 663 178 86 136 175
332 663 180 112 123 142
329 664 182 141 43 50
329 667 182 141 34 38
331 666 181 109 83 126
329 670 181 152 75 71
331 669 180 79 61 98
331 671 181 122 91 109
334 666 179 134 157 182
333 664 180 120 146 171
333 670 179 134 151 180
335 669 179 99 141 174
332 669 180 69 81 128
341 653 175 113 155 193
342 654 175 101 150 190
345 653 175 144 172 201
346 654 175 115 153 188
348 655 175 126 161 195
337 647 183 112 146 177
336 643 189 104 140 172
337 645 184 109 143 175
337 645 186 101 134 165
339 645 185 117 148 178
338 647 184 118 149 180
337 644 190 90 129 162
339 644 190 103 138 170
341 645 187 117 150 182
341 646 186 118 151 182
342 646 186 119 152 184
340 645 188 114 147 179
341 645 191 120 151 182
343 647 189 113 149 183
336 651 179 102 149 187
339 650 179 102 147 184
337 649 180 114 154 190
338 649 180 117 156 191
337 653 177 109 153 192
336 655 177 114 152 187
339 653 176 106 151 190
338 655 177 83 139 181
340 651 179 100 148 188
342 651 178 105 148 184
340 648 182 114 149 181
342 649 180 115 149 182
343 648 182 108 145 179
341 652 176 128 161 194
342 652 177 128 161 193
344 647 186 136 165 195
344 651 178 109 149 185
347 651 178 125 160 193
345 648 182 110 147 181
346 649 182 116 153 186
347 651 180 139 169 200
345 652 177 117 154 188
347 653 177 127 160 193
348 650 182 119 155 189
348 652 178 125 158 191
348 654 177 125 157 189
350 655 176 150 180 211
351 654 179 107 148 184
349 652 182 129 159 189
350 653 182 115 151 185
344 648 184 134 161 189
345 648 187 131 160 189
346 648 186 128 158 188
347 650 186 133 165 197
344 648 190 132 161 192
346 649 189 131 162 193
347 650 189 128 161 193
349 651 185 124 154 184
348 650 188 127 159 191
349 651 190 119 150 180
350 652 184 120 153 185
351 652 186 114 148 180
351 652 189 123 154 184
339 659 175 88 142 182
341 656 174 112 154 190
341 658 175 117 149 180
343 657 174 135 161 188
340 661 175 106 105 124
340 663 174 133 64 76
343 661 173 153 91 102
343 663 173 166 87 95
339 670 175 154 63 70
340 665 175 147 64 71
340 667 174 162 76 70
343 664 173 136 63 70
341 668 173 148 63 59
340 670 174 156 70 75
342 669 173 157 57 61
343 670 173 129 39 50
344 656 174 96 144 182
345 659 172 141 173 206
346 658 172 111 156 193
347 660 171 92 141 179
344 660 173 114 108 117
345 662 172 108 136 161
349 658 171 122 164 202
351 659 171 139 174 208
349 656 174 124 164 201
351 657 173 143 179 212
348 661 171 88 137 175
348 663 170 117 158 193
351 660 170 124 162 198
345 664 171 51 79 139
347 665 170 91 136 170
347 667 171 51 93 137
345 666 172 102 107 128
346 669 171 43 50 118
347 671 170 48 70 128
345 670 172 59 59 97
348 667 170 111 150 182
350 664 170 116 151 185
348 668 170 108 147 180
348 671 170 105 138 168
350 671 169 112 149 182
337 658 177 83 136 175
339 657 176 87 139 179
336 660 178 97 140 176
338 661 176 64 126 167
337 665 177 72 119 155
336 667 178 80 134 172
337 668 177 99 111 133
337 671 177 120 92 105
338 670 176 150 92 92
323 673 183 186 145 157
324 672 183 153 65 84
325 674 182 135 31 43
327 673 182 138 25 39
325 676 182 169 85 98
325 679 182 156 85 89
327 678 181 128 23 39
320 672 185 53 97 138
320 675 185 47 71 118
322 674 184 84 107 133
321 677 184 81 95 131
323 676 184 146 123 121
323 681 183 121 51 69
322 685 183 138 98 81
323 687 183 148 83 72
324 682 183 148 79 86
326 680 182 155 71 75
326 682 182 145 72 77
325 685 182 162 103 104
326 685 181 146 95 102
327 686 181 137 103 113
320 682 185 156 130 95
322 682 184 135 99 87
321 685 184 153 129 105
328 673 181 132 45 51
329 674 181 175 134 135
331 673 180 75 46 71
328 677 181 130 22 36
329 679 181 137 89 97
330 678 180 130 61 83
333 674 179 54 63 128
335 675 177 99 131 160
332 672 180 53 50 109
333 677 179 42 46 114
334 676 178 61 75 128
334 678 178 58 67 128
329 683 179 132 50 66
331 683 178 144 69 83
329 681 180 108 28 34
330 680 180 113 24 51
329 687 179 145 82 44
330 686 179 159 78 43
329 685 180 116 34 64
333 680 178 84 66 107
333 683 178 185 162 140
334 682 177 165 144 118
333 685 177 197 165 123
333 687 176 170 144 113
335 684 177 143 112 94
335 688 175 172 118 90
333 694 175 133 118 105
334 694 175 140 121 109
332 699 175 48 51 86
335 697 174 116 108 111
332 700 175 49 65 97
333 702 175 100 110 126
335 700 174 65 58 63
335 703 174 103 85 68
323 688 182 159 95 96
323 690 183 162 112 116
321 694 183 81 84 95
322 694 182 104 104 105
325 689 181 107 49 80
324 690 182 175 130 138
327 689 180 107 56 86
327 692 179 128 86 72
325 693 181 81 23 63
325 695 181 92 60 80
326 694 180 83 43 48
320 690 184 132 113 93
320 697 183 51 49 81
321 698 183 74 96 119
323 699 181 69 58 54
321 700 182 113 121 135
321 702 183 108 104 104
323 701 182 104 88 73
326 699 179 103 110 121
325 697 180 77 64 74
326 696 180 83 78 80
327 701 178 127 133 143
327 703 179 131 126 126
324 702 181 147 129 116
328 688 179 124 72 60
328 691 179 134 105 100
331 688 178 153 109 58
328 688 180 98 34 68
328 694 178 116 116 120
330 693 177 137 120 106
331 694 177 130 128 134
333 689 177 184 158 134
334 689 176 172 138 109
332 693 177 139 122 106
334 692 176 145 124 110
329 697 178 41 32 66
329 698 178 43 46 65
331 697 177 61 49 70
329 700 177 98 99 118
329 703 177 143 149 160
331 701 176 68 86 121
332 696 176 59 56 76
339 672 175 151 27 48
338 679 175 152 25 47
341 672 174 147 52 48
341 675 174 150 44 51
342 674 173 157 72 76
340 676 175 163 83 87
340 679 174 151 33 47
343 677 173 111 73 80
337 682 175 147 22 47
338 683 175 152 60 70
337 685 175 153 56 67
338 684 174 156 69 73
338 686 174 140 58 57
341 680 174 138 49 58
341 683 174 128 55 56
342 680 174 132 66 69
342 687 171 132 27 50
340 684 174 142 63 69
341 687 173 121 64 72
342 687 172 109 13 40
345 675 171 63 63 84
347 674 170 54 61 124
344 675 172 79 69 66
346 676 170 50 54 108
346 678 171 85 61 95
345 676 172 57 46 53
349 672 169 125 160 191
349 675 169 115 147 175
351 673 169 170 172 186
348 677 169 90 118 159
349 679 168 115 129 146
350 678 168 122 83 91
351 683 167 157 64 66
351 685 166 169 104 111
345 681 171 112 36 70
346 680 171 95 54 93
346 682 170 87 52 106
344 682 172 103 15 56
345 685 171 151 86 102
346 685 169 184 156 121
347 686 169 184 153 113
349 680 169 106 122 144
349 683 168 133 103 116
348 684 169 124 115 112
349 686 168 133 48 61
337 673 176 138 80 81
337 674 177 148 105 114
336 677 177 127 95 110
337 679 176 148 41 56
336 681 176 160 113 113
337 682 176 147 41 56
336 688 175 165 91 87
336 690 175 150 68 83
339 689 173 118 49 67
338 690 174 142 84 89
337 694 173 126 74 93
338 693 173 123 59 91
338 695 173 92 29 72
343 689 170 165 99 42
343 691 171 166 122 70
340 690 173 87 34 60
341 693 171 133 106 87
342 692 171 154 121 81
342 694 170 136 108 100
340 694 172 139 103 107
337 697 173 104 69 84
337 699 172 85 78 82
339 697 172 86 83 101
338 702 171 130 144 163
337 701 172 89 91 100
338 701 172 104 120 140
341 697 170 123 124 137
342 696 169 128 116 107
342 699 169 47 34 83
340 700 170 44 36 80
341 703 169 108 108 117
342 701 169 63 51 91
343 702 168 55 48 81
347 694 167 157 84 96
349 690 167 157 79 88
351 689 166 143 29 33
351 691 166 136 29 38
348 694 166 164 95 110
351 693 165 127 23 56
350 694 166 177 126 141
344 691 169 152 115 67
347 688 168 168 143 117
347 691 168 163 128 111
344 694 169 137 114 98
347 692 168 179 145 120
345 698 167 126 117 111
347 697 167 152 93 109
345 700 167 125 131 144
346 701 167 114 111 116
347 702 166 102 87 96
349 697 166 148 90 101
350 697 165 130 74 95
351 698 165 131 72 86
348 703 165 75 66 66
351 700 164 100 91 90
344 696 168 144 126 110
345 698 168 121 115 115
352 643 128 107 126 159
353 647 128 111 122 143
352 655 177 115 154 189
352 655 180 117 155 189
353 654 183 112 149 183
355 655 183 138 167 198
353 653 187 137 167 197
354 654 184 118 152 184
354 654 186 147 174 204
352 653 189 128 159 190
353 652 191 166 194 225
354 653 190 154 188 223
359 651 190 166 192 223
356 654 187 151 184 218
358 654 187 174 199 228
357 653 188 167 195 226
356 654 188 162 191 224
358 652 190 168 194 224
367 655 183 144 173 204
362 651 190 156 183 213
360 655 185 158 187 220
362 653 187 162 189 220
363 655 184 172 197 226
361 652 189 160 187 218
363 652 189 151 181 213
364 653 187 160 188 219
365 654 185 162 190 221
366 654 184 157 184 214
367 654 187 137 164 192
364 652 190 133 166 199
367 653 189 144 166 191
352 659 170 136 171 205
355 659 171 117 161 200
352 657 174 126 163 197
354 656 175 120 156 189
354 659 172 127 165 201
353 661 169 159 184 215
353 662 169 156 181 211
354 662 168 116 156 193
356 658 173 125 161 196
356 658 175 115 156 192
358 658 174 117 156 192
357 661 169 125 161 195
357 662 168 100 139 172
359 660 170 120 163 201
359 663 168 122 130 150
359 665 167 154 87 97
357 670 167 202 125 132
358 671 167 159 67 72
353 664 168 97 141 177
353 667 169 114 149 179
355 666 168 110 114 141
352 670 169 110 136 159
355 668 168 160 89 103
356 665 168 125 117 140
358 665 168 152 78 102
356 671 168 206 135 136
360 659 175 136 172 206
360 661 169 139 171 202
361 661 171 122 163 200
362 661 169 138 172 206
362 662 169 138 170 203
362 660 172 122 162 199
364 659 175 153 185 218
364 663 169 125 165 202
366 663 168 136 173 208
367 662 171 155 183 213
365 661 173 147 182 217
366 661 173 149 180 212
367 662 172 148 176 206
360 667 167 145 124 158
363 665 167 116 157 193
360 669 166 145 140 156
363 669 165 123 157 189
363 671 165 127 158 188
365 665 167 131 169 206
366 666 166 134 171 207
365 669 165 125 164 200
365 670 165 119 158 193
367 668 166 134 171 205
365 664 168 130 168 204
353 656 178 121 156 189
354 656 179 129 161 194
355 656 181 119 155 188
356 657 178 113 153 189
358 657 179 144 175 207
359 658 178 150 180 213
357 657 181 128 165 200
358 657 181 140 174 208
357 656 184 161 188 218
361 658 177 155 187 220
362 658 177 158 188 220
363 658 178 157 185 216
360 656 183 166 192 223
363 657 181 159 187 219
365 659 176 155 184 215
366 659 177 156 182 212
367 659 178 146 175 206
364 656 182 165 191 221
367 656 181 153 182 212
366 658 180 157 186 217
368 655 185 148 173 200
369 655 187 144 166 192
369 653 189 106 130 162
369 654 188 138 162 189
370 655 189 145 168 195
371 655 190 145 168 196
374 655 191 134 166 199
379 641 191 102 80 61
380 640 189 116 92 67
381 641 190 107 86 64
383 641 188 114 92 67
383 642 191 99 80 60
369 662 171 139 169 200
368 661 173 149 177 207
369 661 175 149 177 208
370 662 172 138 169 201
371 662 174 136 165 195
372 663 174 143 169 197
375 663 175 114 147 178
369 667 166 130 167 202
368 669 165 135 170 205
369 670 165 142 175 207
371 669 166 146 172 199
373 667 167 134 153 181
372 671 165 139 83 100
375 669 167 118 114 134
368 664 168 140 175 209
370 665 168 131 166 200
371 665 170 134 167 199
373 664 171 141 165 192
373 667 168 157 175 200
375 667 169 119 149 181
373 664 172 162 181 204
375 665 172 133 160 189
375 668 169 124 151 180
377 671 166 145 158 177
376 667 171 127 157 187
376 664 174 131 159 188
376 666 173 126 156 187
378 667 172 124 154 184
379 667 175 116 151 184
377 668 170 138 163 190
378 669 170 118 151 183
379 670 168 108 148 184
380 667 175 110 149 184
381 671 169 121 149 178
382 671 171 127 155 184
380 668 174 123 156 188
382 669 174 139 163 189
383 671 172 146 170 197
369 659 177 144 173 204
370 659 177 144 171 201
368 657 181 145 173 203
369 657 182 138 160 186
371 657 182 147 166 190
371 659 180 127 157 188
370 660 177 139 167 196
372 658 181 129 154 181
373 658 183 132 161 192
372 661 177 128 156 184
373 661 178 152 173 199
375 661 179 132 159 187
374 662 178 140 163 189
374 660 180 121 153 185
375 660 182 133 164 196
371 656 185 137 160 186
372 657 185 137 162 191
372 658 184 119 151 184
375 658 185 135 171 206
375 659 186 126 167 204
374 656 189 147 178 209
375 656 190 103 146 186
377 663 177 116 149 180
378 663 179 154 178 207
377 661 183 161 189 220
378 661 183 157 184 214
379 662 183 143 170 200
376 658 187 145 180 214
376 656 191 83 103 156
377 658 188 154 177 204
379 659 188 141 164 199
376 660 184 160 188 219
378 661 184 150 178 210
379 661 186 163 184 213
380 659 191 87 115 167
381 661 187 141 168 197
381 662 186 167 187 214
382 662 186 159 183 211
380 661 188 139 166 197
382 660 189 97 130 168
383 660 190 99 130 174
377 664 176 123 154 185
378 664 178 147 172 200
379 666 177 140 168 198
380 666 176 130 161 193
381 666 178 143 166 194
383 667 179 147 173 204
380 664 182 163 184 210
382 664 182 173 189 211
382 666 181 155 176 202
382 669 176 129 155 182
383 664 184 171 194 222
375 698 159 135 33 57
375 703 159 166 97 86
378 694 159 147 33 53
383 691 159 159 58 57
381 694 159 149 33 41
382 695 159 144 26 42
377 697 159 145 40 62
379 696 159 159 51 69
376 701 159 143 33 46
378 700 159 145 49 54
379 703 159 115 27 45
380 699 158 130 32 48
383 696 158 115 33 41
380 700 159 147 87 92
380 703 158 109 13 40
383 701 158 125 39 66
355 673 167 199 124 129
353 677 167 160 38 46
354 677 166 171 78 90
354 679 166 169 85 96
356 674 167 173 68 74
358 673 167 149 63 96
359 674 166 97 70 124
356 679 165 142 48 51
359 676 165 56 62 107
359 678 165 75 74 118
352 674 168 146 70 74
354 674 168 161 22 33
352 681 166 155 44 59
353 682 166 164 79 79
355 681 166 160 69 72
353 685 165 138 41 52
353 687 165 155 76 83
355 685 165 130 58 68
356 681 165 162 113 113
357 683 164 100 41 65
359 681 164 75 66 109
358 687 163 102 58 105
357 685 164 126 52 89
359 684 164 83 57 108
361 672 166 47 57 121
361 674 166 57 69 122
362 675 165 69 104 142
360 676 166 62 78 116
362 676 165 64 101 142
362 679 164 88 112 152
364 674 165 99 145 182
367 672 165 127 165 198
367 679 163 166 64 69
365 678 164 104 136 162
366 679 164 144 101 110
363 683 163 97 116 137
361 682 164 53 72 133
363 682 164 133 160 187
361 686 163 92 98 140
363 685 163 107 97 111
364 680 163 111 120 140
365 683 163 142 43 63
367 682 163 159 33 59
364 685 163 124 80 90
365 687 162 159 96 106
367 686 162 150 57 58
353 689 165 165 100 104
353 691 165 136 62 70
355 690 164 135 33 55
355 694 163 163 118 56
352 694 164 119 61 90
354 694 164 152 106 57
357 690 163 144 82 73
358 691 162 171 144 114
357 688 164 134 39 72
356 694 163 162 121 64
358 693 162 200 169 131
354 696 163 159 125 78
355 699 163 146 127 109
353 698 164 145 122 117
354 700 163 126 115 107
355 703 163 62 50 81
353 702 164 42 28 72
356 698 162 137 116 97
358 697 162 159 133 107
356 700 162 136 120 106
356 703 163 65 61 78
358 702 162 130 111 103
360 689 163 171 153 133
362 688 162 128 93 103
363 691 162 148 36 55
360 695 162 139 77 65
363 692 162 140 42 54
365 689 161 150 51 60
365 690 161 160 86 87
366 688 162 168 82 93
364 693 161 152 68 73
366 692 161 144 48 59
367 695 160 106 13 40
360 698 161 155 65 72
362 697 161 156 90 89
360 700 161 136 47 66
360 703 161 106 74 77
363 700 161 111 37 69
364 697 161 127 51 64
365 699 161 140 97 119
366 698 161 112 54 76
365 700 161 123 74 102
366 701 160 137 110 83
368 672 165 138 168 196
368 675 164 141 114 126
370 674 164 145 56 77
371 678 163 164 53 67
368 679 164 162 46 60
370 678 164 165 37 51
373 673 165 172 83 91
374 673 165 158 63 80
372 678 163 175 99 102
374 679 163 111 76 90
372 678 164 168 78 87
369 681 163 165 67 76
370 681 163 159 54 70
371 682 163 158 66 74
368 687 162 147 45 60
371 687 161 80 26 57
372 681 163 154 93 95
373 683 162 71 55 62
374 682 162 74 81 97
373 685 162 65 61 74
375 685 161 54 63 136
375 686 161 46 55 129
377 672 166 143 158 176
378 673 165 122 155 186
378 674 165 106 147 182
377 677 163 68 102 145
378 678 163 121 155 186
378 677 164 144 174 204
381 673 167 104 144 179
382 673 167 101 142 179
380 678 163 128 166 202
381 676 165 105 148 187
382 677 165 119 153 187
382 678 164 103 146 182
381 672 168 107 142 175
383 673 169 128 153 181
376 680 162 57 62 134
376 683 162 47 66 129
379 681 162 130 165 196
377 684 161 108 135 166
377 687 161 120 151 178
378 687 161 118 144 171
381 680 163 157 181 208
382 681 163 155 163 183
383 683 162 133 54 76
380 684 162 127 145 166
381 687 161 156 9 50
382 686 161 165 12 52
369 688 161 159 104 108
370 689 161 97 44 53
368 692 161 128 58 83
368 694 161 133 60 79
371 692 161 132 64 98
372 689 161 98 47 85
373 691 161 93 59 112
374 690 161 55 45 115
373 692 160 89 41 105
374 693 160 86 73 108
368 696 160 140 58 71
369 699 160 160 116 55
371 698 160 181 148 103
368 703 160 134 114 95
370 702 160 167 145 128
373 697 160 177 148 114
375 696 160 150 118 120
372 703 160 158 113 88
374 703 160 155 80 68
377 689 160 134 147 167
379 688 160 152 121 134
376 693 160 132 106 121
378 693 160 174 90 102
380 691 160 150 33 49
383 689 160 167 66 66
323 646 193 119 164 204
323 646 195 144 178 212
320 646 198 130 165 200
323 645 196 147 179 213
322 646 196 140 175 211
327 643 194 140 177 213
326 643 197 132 173 212
327 642 198 143 178 213
325 644 194 138 175 212
326 644 192 128 171 210
327 644 194 140 176 212
324 644 198 146 177 210
323 641 203 153 187 221
322 643 203 138 175 212
320 641 206 153 187 222
321 642 205 154 186 220
322 640 206 137 177 215
320 644 203 152 179 208
322 644 200 125 169 209
325 640 203 156 187 221
325 642 201 152 184 217
326 641 202 153 186 220
327 642 200 145 181 217
326 640 204 144 178 213
321 649 193 114 161 201
322 648 193 126 166 204
328 643 195 133 171 208
331 643 193 139 170 201
328 642 197 145 178 213
329 642 198 141 172 204
330 642 198 132 163 195
332 643 193 128 163 196
334 643 192 126 158 189
335 643 195 122 151 181
332 642 199 119 154 186
335 643 197 115 148 179
328 641 201 131 171 208
329 641 202 120 159 196
330 641 203 118 154 195
328 640 205 106 145 198
331 641 204 124 155 201
333 642 201 125 151 184
334 643 200 120 152 183
335 643 202 129 150 184
334 640 205 124 157 202
336 643 193 104 137 167
338 643 192 97 133 165
337 644 195 107 141 172
339 644 194 106 140 170
338 644 196 108 140 170
339 644 199 118 144 173
341 645 192 117 150 182
341 646 195 115 147 178
342 647 195 125 155 185
341 645 199 110 139 169
342 646 197 114 145 175
343 646 198 117 145 177
336 642 203 135 155 204
338 643 203 133 151 201
337 640 205 89 117 168
338 641 205 104 133 178
337 644 201 136 153 184
339 644 202 147 160 197
343 643 202 103 123 172
340 642 204 109 137 181
343 641 204 54 75 143
341 645 201 145 162 189
343 644 202 138 154 192
343 648 195 116 150 182
345 646 199 160 172 207
347 646 199 137 156 198
349 647 198 149 176 211
351 647 198 75 120 175
345 643 203 52 78 149
347 643 202 62 92 156
346 641 204 52 104 166
345 644 202 97 117 173
347 645 201 70 100 165
348 643 201 73 108 162
350 641 203 83 150 199
350 643 202 86 122 178
348 644 201 67 96 161
349 646 200 88 115 172
344 648 192 127 158 189
344 648 195 111 145 177
346 648 195 142 164 189
344 648 196 109 143 175
347 648 197 182 194 215
348 650 193 136 159 186
350 650 193 152 176 203
351 650 194 164 190 219
349 649 197 193 206 228
351 649 196 180 203 232
352 646 199 61 87 159
354 647 197 61 95 163
355 647 198 64 93 166
356 646 199 85 111 180
358 646 198 88 118 188
352 641 203 83 153 202
353 643 202 91 147 194
354 643 203 109 162 206
353 644 200 128 151 189
355 645 201 107 139 187
357 641 203 143 162 186
358 640 202 111 133 156
358 643 203 166 184 207
357 645 200 77 101 178
359 644 201 168 191 221
352 651 192 168 194 223
353 650 194 153 190 226
354 651 192 148 187 224
355 650 194 144 178 212
354 649 196 78 140 190
356 648 195 71 103 174
356 651 193 166 195 226
358 648 195 95 128 180
359 650 192 145 178 212
362 640 199 75 104 136
361 647 199 119 142 187
365 641 199 54 95 136
366 642 199 50 94 137
361 641 201 68 107 144
361 643 202 156 171 191
362 642 201 106 132 159
361 645 201 177 194 221
361 646 201 155 172 208
362 646 200 161 176 210
365 641 200 41 90 138
366 642 200 52 97 141
365 645 201 157 171 191
367 644 200 117 140 166
367 646 201 119 147 178
361 648 195 143 166 197
362 649 194 144 170 200
363 650 193 128 159 192
361 648 198 179 194 219
363 649 197 140 157 201
364 650 193 102 138 180
365 650 194 77 108 172
366 651 195 82 103 166
364 648 198 71 84 165
366 648 199 140 154 200
366 650 197 41 61 152
367 652 193 128 146 173
368 641 197 80 104 135
368 643 199 70 104 141
371 640 196 130 140 158
370 642 198 86 111 140
370 645 199 95 122 153
372 640 195 148 153 164
375 640 193 94 85 81
374 643 195 125 138 162
372 643 197 88 112 143
373 644 197 94 117 146
372 647 199 96 122 159
375 644 196 112 128 149
374 647 198 55 90 144
369 645 200 120 142 167
370 647 200 127 151 178
369 649 199 162 181 214
369 650 198 144 155 191
370 650 198 170 180 208
369 652 192 88 106 140
370 653 193 90 110 152
371 653 194 92 120 166
372 648 199 98 123 171
373 650 199 86 121 185
375 649 198 60 99 156
375 651 198 64 104 172
373 654 192 151 175 203
374 654 193 79 99 151
375 654 195 82 108 163
373 653 196 84 101 161
375 653 196 83 112 178
368 648 200 140 162 203
377 640 192 97 77 55
377 642 194 130 135 148
379 641 193 92 83 80
376 644 195 128 141 158
379 645 194 148 159 178
376 645 196 112 128 151
377 647 197 59 98 142
380 643 193 108 115 126
382 643 193 99 101 107
380 646 194 141 150 172
382 645 193 142 154 171
382 647 194 139 151 177
376 648 198 49 87 144
378 648 196 64 101 145
378 650 197 68 107 156
377 655 195 128 144 185
376 654 197 109 145 196
378 652 198 55 100 171
379 655 196 149 177 211
383 648 195 107 120 166
381 649 196 56 96 147
382 650 196 51 94 148
381 653 197 88 128 174
382 652 196 95 130 167
383 655 196 123 149 191
377 656 193 68 71 140
378 657 193 86 90 155
378 658 192 78 88 153
381 657 195 155 175 215
380 658 194 129 150 200
382 659 193 143 162 204
382 656 196 152 174 209
331 707 175 145 136 141
333 704 175 121 113 108
333 707 174 113 95 88
335 705 174 94 87 80
332 708 175 143 112 101
332 711 175 129 83 68
334 709 174 124 90 93
335 710 174 114 67 69
331 715 175 132 136 146
331 716 174 114 114 119
331 719 174 178 160 148
333 715 173 158 159 165
334 713 173 160 141 133
334 715 173 134 133 138
333 716 173 151 142 144
333 718 173 187 168 157
335 716 172 125 121 122
320 704 182 144 145 150
320 706 183 142 116 102
323 704 181 113 117 126
323 707 181 145 116 98
320 709 183 114 101 100
321 710 182 102 102 106
323 709 181 150 120 110
325 704 179 140 131 134
327 704 179 95 89 100
327 707 179 133 100 85
324 706 180 158 126 107
324 711 179 128 113 104
326 710 178 132 110 101
324 709 180 135 100 76
323 715 179 109 105 105
320 715 181 32 32 43
322 712 180 134 132 140
323 714 180 36 37 48
320 716 181 30 30 41
320 717 182 55 50 58
322 716 180 83 81 84
325 713 178 107 99 100
327 712 177 104 101 100
327 715 177 100 89 90
325 716 178 169 153 143
325 719 178 166 149 138
326 718 177 190 174 165
328 704 177 100 97 101
328 707 177 129 110 104
330 705 176 104 107 117
330 707 177 124 113 108
328 708 178 138 115 107
328 710 178 146 124 115
331 709 176 138 103 93
329 712 176 113 97 86
328 715 177 65 46 56
328 716 176 44 30 35
329 719 176 68 70 73
326 731 175 164 126 88
326 733 175 125 102 89
327 734 175 147 110 81
329 723 175 154 136 120
331 723 173 143 123 108
328 725 175 161 139 118
329 726 175 147 131 118
331 724 174 159 138 122
335 720 171 32 27 29
333 721 172 187 171 161
333 723 173 151 134 123
335 722 172 72 61 57
332 724 173 158 139 127
333 726 172 142 127 116
328 729 174 145 115 97
328 731 174 153 122 103
330 728 174 167 139 123
329 732 173 138 112 86
328 735 173 176 151 127
331 732 172 192 154 109
331 734 172 182 147 106
335 728 171 173 156 143
335 731 170 145 128 113
332 730 172 162 136 109
332 734 171 163 137 113
334 733 171 127 107 88
332 732 172 190 157 119
323 720 179 154 134 118
320 721 181 86 78 73
321 722 180 145 131 120
322 724 179 185 167 159
322 727 178 122 105 92
320 725 181 179 149 115
321 727 180 134 115 98
325 722 177 145 129 116
326 721 177 156 140 128
327 722 176 166 152 145
325 724 178 126 110 97
324 727 178 158 137 117
326 726 176 181 150 120
320 730 179 101 84 69
322 728 178 121 105 94
323 731 177 165 144 126
321 728 180 128 112 98
321 735 177 192 175 165
323 732 177 175 155 140
323 735 176 178 166 160
325 729 176 194 153 100
326 728 176 187 147 100
325 732 176 166 137 108
328 722 176 161 147 139
339 705 171 125 131 141
336 704 173 167 148 131
336 707 172 127 122 130
338 708 171 109 100 108
338 711 171 147 124 121
336 709 172 114 91 102
336 711 173 153 134 133
341 704 170 118 122 134
341 707 170 94 103 119
342 706 168 98 115 141
341 709 169 123 111 120
340 710 170 165 137 134
343 709 168 122 123 137
343 714 167 126 111 105
337 713 171 137 123 113
338 713 171 130 109 92
339 714 170 153 125 106
336 715 172 115 107 102
336 719 171 34 35 43
338 717 170 84 92 109
339 718 170 109 110 124
340 713 170 154 120 86
340 714 170 139 107 81
343 714 168 125 104 96
341 717 169 72 65 72
343 716 168 70 58 60
345 704 167 59 73 88
346 704 167 47 43 55
346 707 166 144 126 110
345 709 166 124 120 125
346 708 166 151 133 120
347 711 166 137 130 130
348 707 165 167 153 143
351 704 164 39 50 78
351 707 164 85 93 127
349 710 165 116 113 114
351 709 164 136 148 165
344 705 168 105 126 152
345 714 166 126 90 84
347 713 166 121 90 92
345 716 166 132 100 75
345 718 167 114 109 120
346 718 166 117 103 100
349 713 165 128 96 81
348 714 166 117 80 77
351 713 165 118 105 100
348 716 165 148 108 77
348 719 165 131 121 120
351 716 164 142 126 118
350 719 165 57 45 53
342 723 167 44 40 46
343 724 167 148 140 136
336 720 171 25 30 40
337 722 170 163 155 153
339 722 169 163 149 141
336 725 171 135 125 119
337 726 170 151 134 123
338 725 170 128 109 89
340 720 169 158 148 145
340 723 168 184 167 156
342 723 168 57 46 42
340 726 168 176 161 154
341 729 167 149 133 119
343 729 166 153 133 117
340 732 167 184 149 111
341 735 166 158 138 123
343 733 166 138 116 96
336 728 170 167 148 133
336 730 170 157 137 121
338 730 169 130 112 97
336 733 169 130 110 89
337 734 169 167 138 109
339 732 168 173 143 114
340 729 168 163 148 138
340 733 168 179 146 108
345 721 167 59 57 71
347 721 165 104 105 109
347 723 165 147 141 142
345 725 166 158 138 123
346 725 165 177 165 159
347 726 165 118 111 109
348 723 165 83 83 89
350 721 165 131 135 147
351 724 163 50 45 59
349 724 164 43 51 60
349 726 164 46 55 63
350 727 164 95 96 101
345 730 165 148 134 126
346 729 165 156 142 134
345 732 165 178 164 157
345 734 165 180 151 124
347 732 165 113 97 82
347 734 165 181 154 128
350 731 163 159 143 130
349 729 164 100 99 100
350 730 164 151 139 132
351 732 163 140 120 102
351 735 162 137 112 94
349 734 164 181 163 152
328 767 158 180 130 98
330 767 159 177 131 98
333 766 158 173 127 97
334 767 158 176 128 100
336 766 158 173 127 99
339 765 159 162 120 94
340 765 159 161 118 91
341 767 158 176 132 103
343 766 158 157 119 93
351 752 159 192 177 169
348 757 159 161 141 128
349 759 159 48 56 84
350 758 158 143 122 114
346 761 159 132 130 137
347 763 159 98 120 142
345 767 157 168 128 101
346 764 159 109 121 136
346 766 158 163 138 114
349 761 158 166 168 175
351 760 157 151 141 137
351 762 157 118 124 134
348 765 158 119 115 115
350 764 157 97 104 116
350 767 156 176 162 154
322 742 175 161 144 132
325 737 175 93 92 101
326 736 174 167 144 120
327 739 173 178 171 171
324 741 175 146 130 123
325 742 174 132 74 75
326 742 173 151 124 111
321 745 175 119 108 102
323 744 174 150 136 125
323 746 174 99 76 55
321 749 174 112 99 96
323 748 173 106 90 78
322 751 173 158 135 114
324 744 174 180 153 143
325 747 173 161 148 140
327 745 172 113 114 117
327 749 171 111 117 128
325 748 172 160 149 144
325 750 172 92 91 95
331 738 171 69 49 50
328 736 174 180 157 137
330 736 172 183 161 142
329 742 171 131 120 114
330 743 171 136 121 111
328 741 172 142 129 120
329 742 172 135 124 118
333 736 171 105 85 71
333 738 170 160 128 94
335 737 170 137 116 100
332 740 170 157 143 134
333 743 169 197 180 168
335 740 169 190 171 159
335 743 168 120 115 118
328 745 171 166 161 161
329 747 171 158 152 151
330 746 171 141 114 105
328 748 171 125 133 144
328 750 171 105 119 135
330 749 170 141 135 135
332 745 169 132 82 89
333 746 169 117 102 114
334 745 169 114 113 121
332 748 169 134 128 131
332 750 169 108 114 123
335 748 168 169 157 153
320 736 178 193 178 170
320 738 178 188 171 159
322 738 176 148 140 137
321 740 176 160 149 141
321 742 176 135 116 103
324 736 176 130 130 135
321 757 165 118 86 64
320 759 165 159 116 87
322 756 166 103 75 54
322 759 164 142 101 75
325 756 167 97 72 54
326 756 167 103 75 54
326 759 164 121 92 72
321 755 168 99 71 52
321 755 170 105 74 57
322 754 171 110 73 58
320 753 173 123 79 59
323 752 173 166 144 124
325 752 171 128 124 125
325 754 170 105 74 58
327 752 171 82 103 122
324 752 172 153 136 121
326 756 169 114 79 59
323 760 163 154 112 83
323 763 163 175 127 93
320 763 164 183 129 98
320 764 163 184 129 97
320 767 161 189 137 103
322 764 162 181 130 98
323 766 161 184 133 100
324 762 163 165 118 89
327 760 163 135 100 76
327 763 162 167 119 91
325 764 161 176 128 92
324 767 160 185 134 100
327 765 160 177 127 95
328 757 166 102 72 59
328 759 165 114 85 66
330 757 167 114 88 67
331 758 165 111 81 63
332 754 167 137 127 120
335 753 166 142 137 136
335 755 166 118 124 139
332 758 165 117 85 61
333 758 166 141 115 91
334 759 164 141 104 76
328 752 170 74 106 132
329 754 169 142 129 120
331 753 168 150 143 141
328 756 168 117 84 59
332 754 168 131 119 112
329 763 161 162 119 88
330 761 163 135 99 74
328 760 164 127 94 75
329 764 161 167 121 91
331 764 160 164 120 90
333 761 163 134 99 74
334 761 163 134 95 72
334 762 162 137 102 77
332 764 161 160 118 90
339 737 167 172 133 84
337 743 167 79 80 89
339 742 166 174 150 125
341 737 166 129 103 83
341 739 166 153 129 114
343 738 165 170 139 103
340 741 166 162 124 86
341 742 166 185 163 145
342 742 165 190 171 158
336 737 169 163 143 128
336 739 168 193 173 158
339 737 168 180 135 75
337 741 168 158 141 129
337 745 167 166 157 154
338 744 167 167 159 156
338 747 166 194 175 161
337 749 166 135 68 78
337 751 166 162 150 146
338 751 165 127 130 138
341 745 165 166 156 152
340 746 166 195 181 173
342 746 165 117 121 132
342 751 163 135 94 86
341 749 164 117 118 125
342 748 164 143 140 143
336 745 168 114 111 114
345 737 164 184 152 119
345 739 164 174 140 102
347 738 164 151 129 108
346 743 163 135 108 83
345 740 164 175 148 121
346 741 164 151 133 123
349 738 162 137 113 87
350 737 163 143 119 96
348 736 164 146 127 110
349 741 163 112 94 77
351 740 161 189 152 109
350 743 161 187 152 114
345 745 163 146 131 119
347 744 162 177 152 128
347 746 162 188 169 154
344 749 163 182 166 155
345 750 162 182 167 158
346 751 161 87 91 104
349 745 161 186 163 143
349 747 161 154 136 124
351 745 161 153 122 95
348 749 161 116 109 120
349 750 161 74 86 107
351 749 160 178 155 135
336 752 167 137 128 125
336 754 166 148 144 146
339 753 165 82 111 135
338 759 163 142 142 147
337 757 165 77 113 143
338 756 164 105 125 146
341 753 163 164 119 126
342 754 163 170 151 155
341 752 164 144 115 111
340 757 163 91 111 131
341 759 162 154 149 150
343 758 161 89 67 58
336 760 163 153 125 103
336 762 162 131 98 71
339 761 163 100 81 71
337 764 160 156 116 91
341 760 162 147 130 117
340 762 162 148 125 107
342 762 161 174 156 143
341 764 160 156 123 94
345 753 162 148 141 138
346 752 161 97 100 114
347 754 160 142 116 96
345 757 161 140 117 111
345 759 161 105 80 69
346 759 160 155 143 136
349 752 160 175 163 156
350 753 160 192 174 163
345 760 160 152 139 134
346 761 160 146 139 141
363 718 159 130 112 100
366 713 159 84 99 127
367 715 159 108 114 131
365 718 159 125 123 124
366 718 158 128 130 136
363 720 159 147 115 100
362 724 159 130 116 116
363 726 159 115 106 115
365 721 158 152 117 103
367 720 157 104 95 107
367 723 157 131 108 95
364 725 158 105 79 80
366 725 157 131 116 106
367 726 157 140 122 106
360 730 159 179 166 159
363 729 158 34 34 54
360 732 159 188 170 158
361 734 159 125 110 103
362 734 158 106 99 96
