ply
format ascii 1.0
comment Created by Open3D
element vertex 2039
property double x
property double y
property double z
property uchar red
property uchar green
property uchar blue
end_header
231 836 99 208 146 106
230 836 100 211 148 107
225 843 99 211 146 98
224 842 100 206 137 82
224 844 99 219 155 105
227 845 99 213 145 95
225 846 100 221 157 113
231 843 99 220 152 108
230 842 100 216 150 107
229 846 99 201 131 81
231 847 99 213 142 97
233 834 98 196 136 96
234 835 99 198 137 96
234 837 99 203 141 101
233 839 100 209 147 104
237 833 98 188 134 92
239 833 98 183 130 90
237 837 99 205 144 104
236 838 100 209 148 107
233 840 100 210 147 104
235 841 100 210 145 106
233 846 99 214 146 101
235 844 100 207 138 96
237 840 100 212 152 113
238 840 100 211 152 112
239 843 101 211 148 109
237 846 101 213 148 109
239 847 101 211 145 105
224 849 102 159 119 89
226 848 100 212 148 103
226 851 102 169 124 89
230 849 99 199 133 84
228 851 101 205 149 98
229 852 101 205 150 97
231 852 100 216 147 102
231 855 103 215 144 97
224 852 106 171 130 91
225 855 107 178 132 88
226 854 106 175 131 93
228 854 104 188 137 89
226 856 107 179 130 88
225 857 108 181 132 96
225 859 110 177 130 91
224 860 110 172 127 90
226 860 109 179 132 89
226 863 110 170 123 81
228 858 107 181 129 79
231 857 105 216 141 92
229 860 107 189 132 83
230 862 107 192 131 84
229 863 108 164 116 72
233 850 99 214 145 98
235 849 101 212 145 101
232 852 100 216 145 99
233 854 102 213 139 88
234 854 102 214 141 89
237 849 101 216 154 112
238 848 102 214 147 105
239 851 103 224 163 122
237 854 103 227 160 119
239 853 104 228 162 123
235 856 103 223 153 104
232 859 105 208 134 82
235 858 104 224 155 104
232 863 107 203 136 86
235 861 106 226 160 112
235 863 108 223 157 112
237 858 104 227 161 122
239 856 105 224 156 119
236 861 107 228 163 119
239 861 107 230 167 126
238 863 109 230 165 123
224 863 113 161 121 82
241 834 98 184 131 89
243 834 98 187 133 91
242 836 99 193 138 100
243 838 100 206 144 106
245 834 99 200 141 100
247 835 99 210 146 108
247 837 99 211 147 111
246 839 100 209 143 107
240 843 101 211 147 108
243 842 100 210 148 107
241 847 101 212 148 109
242 846 101 210 145 106
244 842 100 211 149 109
247 840 100 210 143 109
244 845 101 210 147 108
246 845 101 209 145 107
247 847 102 214 151 112
248 835 99 212 147 110
250 834 99 218 152 117
249 837 100 214 147 113
250 838 100 217 149 112
253 833 99 223 163 123
253 835 100 224 161 123
252 836 100 220 155 117
253 839 101 223 156 118
254 839 101 225 159 121
248 842 101 213 148 110
251 841 101 218 152 114
248 845 102 214 150 111
250 844 102 217 153 114
252 841 101 219 152 115
253 842 103 221 155 118
254 843 103 222 156 119
254 843 104 221 157 120
253 846 105 220 155 118
254 846 105 217 154 118
241 848 102 214 153 113
243 848 102 213 152 112
244 849 102 217 156 115
246 848 102 215 154 113
240 853 104 229 167 128
242 852 104 227 167 124
246 851 104 225 166 129
244 855 105 223 159 123
246 854 104 222 160 123
240 858 105 224 157 119
242 857 106 222 158 123
241 860 107 229 166 129
240 863 108 237 175 132
242 863 109 242 181 140
244 858 106 222 161 122
246 857 106 220 157 119
245 860 107 230 171 131
245 862 108 239 180 140
247 862 109 235 175 136
248 851 104 222 160 124
250 850 104 220 155 118
248 853 105 220 158 121
250 852 105 215 154 116
250 855 106 218 157 117
253 849 106 211 150 112
254 849 106 207 148 111
255 851 107 201 148 111
253 854 107 209 151 112
255 853 108 202 149 111
249 856 106 219 158 119
250 856 107 218 157 116
250 859 108 222 160 118
248 862 109 233 174 135
251 861 109 215 148 104
252 858 107 217 156 112
254 857 108 210 149 106
255 859 109 202 144 98
252 862 110 194 134 89
255 861 110 190 135 90
226 865 111 164 122 81
229 864 109 168 118 75
229 867 110 165 116 75
231 866 109 182 125 82
228 870 111 148 106 72
231 870 111 160 112 71
232 867 110 187 126 80
235 865 110 219 153 106
232 869 111 175 122 81
236 864 109 224 154 110
237 866 111 215 143 95
238 867 111 215 146 98
238 869 111 218 152 108
225 864 112 165 124 84
224 866 115 157 116 79
226 867 112 150 110 72
225 869 114 152 115 80
226 869 112 140 101 64
224 869 116 156 116 82
231 871 112 153 108 70
227 873 112 145 102 70
227 875 113 141 100 62
225 872 116 146 110 76
224 874 118 148 109 80
227 876 113 138 98 62
227 878 112 136 95 62
225 876 117 138 103 70
225 878 117 134 103 72
226 878 116 123 96 69
229 875 112 159 118 82
230 875 112 151 109 72
228 879 112 143 104 74
230 879 112 152 113 80
224 878 120 144 108 79
232 871 113 163 115 73
235 870 112 208 146 97
238 870 112 214 148 103
232 874 114 153 111 74
234 874 114 188 136 90
232 878 113 147 106 69
234 878 114 167 118 81
237 872 112 206 141 94
238 872 112 208 144 99
239 875 113 203 140 95
237 878 115 169 119 76
239 878 115 174 123 83
226 881 115 122 95 71
227 883 114 125 87 64
225 882 117 115 89 64
226 883 116 115 89 61
227 886 115 116 85 65
226 884 117 110 84 57
227 886 116 116 89 70
229 881 112 149 112 80
231 881 112 134 96 64
229 885 113 136 98 69
228 887 115 113 81 57
224 880 120 134 98 69
224 882 120 129 93 64
224 881 124 148 106 77
224 884 122 125 91 62
224 886 122 114 82 56
227 888 115 111 81 60
226 888 119 107 80 57
226 891 119 97 72 54
226 895 119 105 81 64
228 889 115 115 81 58
230 889 113 133 98 77
231 891 115 119 88 68
228 893 117 113 87 68
229 894 118 112 87 68
231 895 116 104 80 65
224 889 123 101 70 52
224 891 122 93 69 51
224 890 124 100 72 52
224 893 123 87 64 47
225 895 122 100 76 57
224 894 124 85 63 42
233 881 113 155 112 77
234 881 114 160 114 77
235 883 114 154 110 74
232 887 113 137 97 70
235 885 114 149 106 72
237 880 115 156 108 67
238 881 115 153 109 72
239 883 116 145 106 69
237 886 115 138 98 61
238 885 116 148 112 79
233 889 114 133 95 67
234 889 114 134 96 66
235 891 116 129 96 66
235 895 115 105 83 60
235 892 116 122 91 61
236 890 115 133 98 68
239 890 115 121 87 61
237 895 115 107 84 58
238 895 114 104 80 60
241 864 109 238 173 129
243 864 109 242 182 139
240 868 111 222 155 111
242 868 110 225 158 111
243 870 111 228 164 120
244 866 110 237 175 130
247 866 109 233 171 127
244 870 110 228 160 113
246 870 110 223 158 113
247 878 103 184 132 93
243 873 111 223 158 113
248 864 109 231 169 129
249 867 110 221 157 116
251 866 110 193 132 88
248 870 111 216 151 105
250 870 111 212 153 111
252 867 111 168 116 71
249 879 99 143 107 78
249 878 100 164 118 85
249 877 106 183 132 94
249 879 106 183 132 95
249 878 111 175 126 89
250 878 108 175 127 90
252 876 110 181 133 93
240 875 113 209 146 103
243 875 113 218 154 110
241 878 115 190 138 99
242 879 115 183 135 94
245 875 113 218 157 112
245 876 113 217 155 110
246 876 113 215 152 106
250 870 112 208 152 114
254 866 112 155 104 59
252 870 112 174 122 83
255 868 113 154 109 76
255 871 115 143 104 70
249 874 113 208 146 103
250 875 113 200 142 101
248 878 114 215 147 99
251 876 112 190 138 97
250 878 114 184 133 94
253 872 113 163 119 78
254 872 113 151 109 69
254 875 115 168 128 92
253 877 115 169 127 90
255 877 115 165 124 89
255 879 117 156 116 82
246 881 103 135 101 75
244 887 110 112 83 61
247 887 108 112 87 65
243 892 111 99 74 54
243 895 110 96 73 52
244 888 111 110 81 55
246 889 108 104 82 61
247 891 109 104 79 64
247 894 107 91 70 54
244 892 111 100 76 56
246 893 108 98 75 55
248 881 98 143 107 78
248 880 107 167 122 88
249 880 108 176 127 91
249 887 108 109 84 68
248 889 99 107 79 61
250 889 98 116 89 70
250 888 101 117 88 73
249 893 99 96 73 51
252 889 103 121 92 70
249 891 107 102 82 64
251 891 107 106 83 63
249 889 110 109 80 61
250 888 108 108 85 67
251 891 108 106 84 63
248 893 107 97 76 58
249 895 106 88 66 47
251 895 105 90 69 49
252 891 109 108 83 61
252 893 107 100 78 57
254 892 106 107 86 66
253 892 111 103 79 57
255 892 111 103 82 63
255 895 110 102 79 59
240 882 117 138 93 61
242 882 116 156 111 76
240 884 117 135 98 64
241 887 116 124 90 58
242 887 116 119 83 57
245 883 112 145 106 79
246 883 113 143 103 75
245 882 116 175 125 87
245 885 114 127 90 69
246 884 114 143 100 74
247 887 115 125 88 65
245 886 116 128 89 64
240 889 115 125 89 62
243 888 113 112 82 52
243 890 113 101 74 49
241 893 113 102 82 65
241 894 113 101 80 63
242 894 112 99 78 59
244 889 114 109 81 53
247 888 112 114 81 61
249 880 115 194 135 95
251 881 115 165 121 82
250 883 116 160 117 88
249 886 115 133 91 64
250 887 115 125 86 64
251 884 116 148 105 73
253 882 116 150 111 79
254 883 116 141 104 72
252 887 113 128 95 70
253 884 116 141 103 71
255 887 116 125 91 72
250 889 113 116 85 67
250 890 113 110 84 67
253 889 115 120 89 68
254 888 113 118 89 66
254 890 115 112 86 63
253 892 112 109 83 61
128 769 146 144 151 163
128 771 146 141 148 160
130 769 148 141 147 158
130 770 149 125 138 155
128 772 146 142 149 162
129 774 147 127 139 154
130 773 149 132 143 158
130 774 150 121 137 155
131 772 152 115 129 146
133 768 153 114 123 138
132 770 154 110 115 130
133 771 157 123 92 102
135 769 158 122 66 83
135 770 159 142 50 65
132 773 155 112 108 122
133 772 157 119 81 93
133 775 157 106 91 102
134 775 159 128 56 57
128 776 148 121 133 150
129 778 149 118 135 156
131 777 151 100 117 135
128 782 147 137 148 167
128 783 148 152 167 190
130 783 150 105 110 125
131 779 153 112 120 135
131 783 152 129 70 87
132 776 154 110 119 137
132 779 155 107 122 141
132 778 156 105 113 129
134 776 159 114 52 65
132 782 155 106 78 99
133 780 159 74 83 113
132 783 159 103 127 158
128 785 148 124 145 167
130 785 150 72 79 112
128 789 148 138 152 170
130 788 150 77 84 133
130 791 151 76 58 100
131 785 154 133 57 71
131 786 155 131 65 68
131 789 152 103 89 96
131 791 153 93 62 68
132 785 158 128 135 146
132 787 158 143 121 128
132 788 157 144 92 88
132 790 156 131 39 55
133 791 159 152 80 90
129 792 149 128 138 153
130 792 149 112 123 142
128 796 148 122 80 85
128 798 148 138 56 64
130 796 151 103 111 129
130 794 152 63 53 101
131 795 155 112 58 62
130 797 154 81 41 82
130 799 154 78 40 80
132 793 155 119 45 58
133 793 158 177 94 97
133 795 158 155 31 49
132 797 157 145 40 43
134 797 159 155 74 71
135 770 160 145 54 66
135 778 160 127 90 88
134 783 160 62 65 112
137 768 161 109 126 148
138 769 161 109 124 143
136 772 160 137 28 38
136 775 161 138 32 40
138 775 161 136 34 45
141 768 163 84 119 149
141 769 164 81 114 141
143 768 167 78 51 57
143 770 167 63 61 73
140 774 163 100 77 86
141 775 164 95 99 116
143 773 167 74 64 93
143 769 169 127 97 94
143 772 170 111 75 79
143 774 171 102 56 51
137 777 161 141 62 73
138 776 162 141 49 58
139 779 162 134 22 34
137 782 161 123 64 59
138 782 162 133 48 53
140 778 163 133 23 43
140 778 164 125 33 52
142 776 167 52 61 106
141 780 165 125 30 59
140 782 166 127 56 51
142 777 169 73 52 105
142 779 169 76 53 100
143 778 172 146 91 101
142 780 169 109 87 106
142 783 170 147 106 82
133 786 160 114 142 168
134 787 160 81 100 131
134 790 160 144 143 150
135 795 160 158 66 80
137 784 162 98 25 41
138 785 162 98 28 37
139 786 164 116 27 37
136 791 160 106 101 111
138 791 162 128 87 80
140 785 165 133 42 49
140 786 166 129 25 38
140 788 166 126 58 61
140 790 166 123 49 49
141 784 169 129 51 65
142 784 170 148 106 81
143 786 170 140 86 62
143 789 169 152 60 71
136 793 160 123 84 95
137 794 161 136 100 89
139 793 163 153 120 90
139 794 164 158 118 77
136 798 161 157 68 65
139 797 163 149 113 87
140 792 166 130 74 80
140 795 165 158 115 56
142 795 167 140 107 88
141 797 165 159 130 97
142 796 167 155 116 112
143 798 166 150 132 118
142 794 168 122 84 81
144 769 171 133 48 53
144 769 172 138 80 71
144 770 173 149 92 87
144 772 170 132 93 96
144 773 174 161 115 114
145 774 175 147 44 66
145 777 174 143 70 72
146 777 175 163 108 103
145 781 174 139 50 69
146 780 175 121 10 34
148 783 175 165 141 135
146 768 178 103 116 135
146 771 178 122 71 84
146 772 177 180 130 130
147 775 177 169 84 95
149 769 181 121 50 86
150 769 182 122 30 62
151 770 183 126 22 50
149 775 179 159 99 80
150 773 181 190 158 113
151 775 180 207 175 135
147 777 177 152 31 61
148 777 178 158 16 56
149 779 177 168 82 91
151 778 179 174 119 96
149 780 177 156 65 68
150 781 177 186 120 126
151 783 176 171 124 133
154 770 183 124 19 42
152 774 181 188 143 75
155 773 182 163 101 69
156 772 183 120 29 57
157 774 183 142 85 93
158 775 182 166 127 115
153 770 184 158 81 93
155 771 184 157 84 90
157 770 184 176 100 91
158 770 185 177 86 85
152 779 179 180 107 91
153 776 181 189 154 119
155 778 180 168 140 120
153 783 177 152 68 102
155 783 177 170 135 137
156 777 181 172 140 103
159 776 181 141 113 106
157 780 179 147 130 118
158 780 179 107 89 95
158 782 178 121 128 146
145 785 173 172 139 103
146 785 174 169 126 99
147 787 174 171 136 92
144 790 171 170 75 82
146 788 172 167 136 108
148 785 174 161 123 79
149 787 174 153 125 106
148 791 171 164 129 124
148 791 172 157 135 119
150 790 173 137 126 119
145 798 167 117 126 136
145 792 170 167 90 98
146 792 170 156 73 94
146 795 170 137 46 72
146 796 168 130 96 90
147 799 168 80 104 139
149 794 171 130 108 107
151 794 170 136 139 156
149 797 169 100 82 73
150 797 169 95 75 61
151 798 169 112 93 82
155 785 175 87 53 57
152 788 174 126 128 138
153 791 172 148 141 157
155 791 172 87 75 107
157 787 175 93 87 89
156 789 173 95 100 134
157 791 172 77 93 122
158 791 172 116 130 149
152 794 171 95 119 146
155 794 170 90 104 137
153 796 169 92 82 72
154 796 169 92 80 72
156 793 171 94 110 133
158 792 171 101 125 148
159 795 170 110 120 135
156 796 170 102 103 111
159 797 169 141 135 146
150 784 176 146 90 112
154 785 176 102 51 60
159 784 176 86 90 101
129 801 151 125 47 56
128 805 149 141 29 41
128 807 150 151 81 77
129 803 153 126 51 59
130 802 154 116 75 92
131 803 156 151 115 98
128 806 152 136 26 39
130 805 155 150 116 90
131 807 155 153 91 97
132 803 156 156 116 87
135 801 159 141 32 40
132 805 156 189 155 108
133 807 157 208 171 124
134 807 157 193 155 105
128 809 150 139 39 54
129 811 151 125 36 40
128 814 149 130 21 64
130 814 151 136 68 72
130 809 153 142 39 55
130 811 153 146 45 48
131 813 152 156 73 66
132 809 155 150 77 77
133 809 156 156 100 93
135 808 158 173 136 88
132 813 154 176 83 86
133 815 154 154 70 78
135 812 156 178 112 97
136 806 158 160 114 45
137 808 158 150 117 74
137 811 158 139 120 103
136 812 157 157 124 111
137 814 157 151 119 114
138 815 157 143 115 122
141 812 159 75 67 86
142 814 159 119 113 124
128 823 129 175 26 47
128 823 133 149 15 45
128 820 143 161 34 59
128 822 143 158 40 61
129 825 130 179 16 53
131 826 128 189 26 75
128 824 133 155 16 43
129 825 134 180 30 58
131 827 132 191 18 57
131 828 131 207 14 55
133 829 129 221 138 136
133 830 131 201 110 128
134 831 131 192 142 156
132 828 135 186 101 98
134 830 133 196 104 130
135 831 134 161 32 77
128 824 139 225 181 124
130 826 137 210 137 39
131 827 139 240 193 133
130 825 141 203 167 124
131 826 140 229 191 147
131 828 139 237 188 122
132 829 137 203 156 86
133 830 136 198 149 110
134 830 139 205 174 143
132 828 142 207 165 147
135 829 143 183 155 139
136 831 129 219 174 164
136 831 142 144 136 141
128 818 147 178 150 126
129 817 149 169 129 82
130 817 150 168 92 70
131 819 150 179 126 44
129 820 147 189 167 148
130 823 145 168 34 67
130 821 148 191 161 124
132 818 151 168 108 55
133 821 150 182 146 110
133 823 150 158 124 110
132 816 153 143 80 76
133 819 152 145 94 99
134 819 152 143 100 106
135 820 153 137 99 70
131 824 145 177 37 51
132 825 147 184 111 117
133 826 147 173 119 131
132 824 148 209 169 137
135 825 149 171 145 132
134 828 144 164 91 122
136 819 154 130 63 60
137 818 156 127 35 57
139 818 156 131 101 102
137 821 154 116 127 139
138 821 154 99 122 145
139 823 154 65 87 120
140 818 157 94 82 89
143 817 158 100 114 133
141 821 155 95 97 104
142 823 155 120 130 147
143 820 157 159 158 171
136 826 149 165 163 172
138 826 150 84 93 136
137 829 145 155 119 124
137 830 145 146 123 125
139 831 144 109 126 146
138 829 148 75 59 86
140 831 146 143 149 163
141 828 150 148 144 146
142 828 150 143 129 131
143 831 148 165 139 126
139 824 153 72 73 104
141 824 154 125 137 163
143 824 154 125 133 148
144 815 159 95 103 127
153 814 159 163 133 101
157 812 159 107 117 132
159 812 159 115 115 119
144 816 159 112 116 134
146 816 159 121 121 131
144 823 155 158 150 154
145 820 156 130 133 143
147 820 157 146 123 107
148 819 157 145 124 115
151 816 159 111 75 70
148 823 155 158 116 106
151 822 155 169 149 138
150 820 156 159 136 126
145 829 150 179 128 139
146 828 151 162 119 122
146 830 150 194 150 159
149 829 150 145 139 143
150 829 150 134 133 136
151 830 150 147 142 142
144 826 152 169 142 128
146 824 155 155 120 97
147 826 153 163 136 122
148 827 152 146 125 116
151 824 154 133 122 119
153 816 158 143 110 78
154 817 157 139 130 132
155 819 156 105 101 104
153 823 154 57 56 66
155 823 154 51 32 42
157 816 157 57 42 59
157 819 156 129 127 129
156 820 155 167 152 142
156 823 154 113 90 85
159 823 153 204 183 168
152 829 150 104 111 118
155 829 149 141 125 118
154 831 149 216 196 182
158 827 151 183 158 143
157 829 150 196 173 155
158 828 150 183 159 141
152 825 152 96 97 104
154 824 153 69 71 84
156 825 152 197 184 178
159 824 152 161 137 115
137 800 161 142 47 55
138 801 161 139 45 53
138 802 162 141 54 62
138 805 160 144 93 82
139 806 160 145 104 84
141 802 163 152 95 104
142 801 165 150 136 125
143 803 165 135 138 146
140 806 162 151 114 105
142 807 163 160 138 138
138 808 160 123 94 57
141 808 161 108 111 117
143 809 161 94 109 133
143 810 161 76 101 129
143 814 160 93 88 105
145 802 165 35 43 80
146 803 165 68 73 95
147 807 163 117 119 130
146 804 165 80 89 113
147 807 164 133 142 159
149 803 166 95 107 139
151 802 167 86 104 129
148 806 164 120 138 166
150 804 166 117 141 169
144 808 163 108 96 94
144 810 162 87 103 121
146 810 162 145 132 123
144 814 160 126 135 157
147 815 160 127 129 144
148 810 162 156 142 134
151 809 163 143 139 143
149 812 161 131 119 122
151 812 161 156 140 130
153 801 167 165 154 150
154 801 167 137 128 125
153 807 163 112 88 91
152 806 164 104 100 120
155 805 164 158 136 121
157 802 165 165 135 120
158 803 165 158 128 110
158 806 163 140 120 109
157 805 164 145 118 98
152 809 162 139 124 124
154 808 162 145 107 116
155 811 161 124 107 105
152 814 160 167 134 102
156 808 162 152 107 80
157 811 160 108 103 107
158 811 160 104 99 103
160 774 183 133 62 98
163 775 182 93 59 59
160 768 186 183 103 91
161 770 185 192 114 119
162 770 185 187 121 125
162 772 184 182 117 132
165 768 187 174 154 137
167 769 187 138 136 149
166 768 188 170 158 149
165 773 185 165 163 166
167 772 186 89 90 104
160 777 181 125 129 144
163 777 181 121 138 156
160 781 178 95 89 114
162 780 179 124 118 139
163 782 178 125 145 173
164 779 180 132 141 159
167 777 182 159 143 130
165 780 179 105 118 144
166 780 179 139 145 160
166 780 180 153 156 165
169 771 186 108 97 97
169 770 188 52 33 74
171 770 188 66 73 112
168 775 184 96 117 137
171 772 187 84 75 103
172 771 187 76 67 110
172 771 188 121 123 151
174 770 189 121 119 119
172 773 187 118 132 162
173 775 186 112 113 134
173 772 188 120 128 145
168 778 181 187 170 158
170 777 183 87 83 91
168 782 179 129 112 123
168 781 180 127 113 125
171 781 181 183 144 139
172 779 182 142 117 118
172 780 182 171 150 155
173 783 180 167 124 101
174 783 181 175 134 103
172 776 184 117 131 157
174 777 185 77 69 81
160 786 175 114 100 88
163 787 175 145 123 118
160 791 172 140 135 139
162 791 172 129 123 128
164 788 175 150 125 119
164 790 174 85 78 77
167 791 173 135 119 116
160 794 171 136 139 145
163 795 170 147 106 94
160 796 170 120 109 110
162 796 170 149 120 109
164 795 170 149 107 91
167 795 170 145 119 99
166 792 173 160 137 129
164 796 170 161 123 108
166 797 169 125 117 121
167 799 168 112 117 133
169 790 175 171 156 160
171 791 174 121 121 134
175 790 175 100 94 97
168 792 173 109 91 89
171 792 173 115 115 128
169 797 169 113 95 103
168 799 169 45 37 73
171 797 170 194 175 159
172 792 173 72 57 67
173 794 173 66 53 49
174 795 172 66 49 45
173 796 171 155 148 148
174 797 170 203 191 187
175 798 171 167 158 157
162 784 177 119 141 167
165 785 176 159 160 173
167 784 178 168 156 154
169 784 178 151 131 122
171 784 178 146 127 119
171 786 178 166 142 125
173 785 179 126 103 96
175 785 179 122 102 111
174 784 180 175 150 129
174 788 176 136 125 124
176 769 190 106 94 83
177 770 190 138 125 119
179 770 190 123 118 120
177 775 187 137 111 116
178 772 189 125 122 125
180 770 191 128 123 124
180 772 189 111 96 94
181 774 188 166 144 130
182 774 189 162 139 124
176 780 183 182 159 149
177 782 182 156 136 125
179 782 182 135 132 142
181 783 183 111 106 106
176 776 186 169 144 142
178 777 185 142 101 98
178 779 184 148 124 119
180 777 187 154 110 91
180 778 186 148 100 86
183 778 187 143 122 108
181 781 184 132 129 137
184 773 190 179 138 115
185 774 191 167 127 94
187 774 190 148 126 116
189 774 191 123 117 118
184 783 183 171 152 139
186 779 186 67 52 76
185 777 188 119 101 114
184 781 184 153 146 148
185 782 185 189 179 177
186 783 184 206 187 174
191 779 187 194 176 163
189 778 188 184 169 158
190 779 188 199 180 165
188 782 185 85 63 73
190 781 186 208 186 171
176 792 175 196 174 159
177 795 173 202 179 161
178 794 175 207 189 177
176 798 171 143 130 125
179 799 170 158 142 132
178 797 172 196 176 165
181 794 175 174 150 134
180 797 172 183 164 152
181 799 172 166 146 128
183 798 173 194 157 127
185 797 175 210 175 143
186 797 174 215 184 155
188 797 175 188 159 136
190 798 175 156 127 96
176 787 178 121 111 111
176 784 180 144 129 129
178 785 181 148 154 180
176 788 178 79 54 51
178 788 178 201 175 156
179 791 176 91 67 59
180 786 180 88 93 100
183 784 183 131 112 97
180 789 178 191 165 143
182 788 179 207 194 189
183 790 179 211 196 187
180 792 177 177 156 147
182 793 177 186 162 145
184 785 182 148 128 115
184 786 182 122 104 90
186 787 182 174 152 138
185 791 178 176 154 135
185 788 180 72 67 68
186 790 180 94 82 78
189 787 182 171 147 127
188 791 179 173 146 119
189 790 180 184 163 145
190 791 180 190 164 138
190 784 184 148 122 118
185 792 178 178 152 128
186 793 178 195 171 152
187 795 176 193 169 153
189 793 179 213 176 135
190 793 178 209 172 135
191 794 178 206 169 133
191 796 176 161 136 119
161 815 157 210 187 172
163 813 159 175 167 166
164 813 159 147 134 134
165 815 158 187 167 153
167 814 159 172 150 134
170 813 159 181 158 139
172 815 159 192 160 127
161 819 155 121 119 124
160 819 156 113 115 121
162 818 156 116 90 80
160 823 153 181 159 141
162 822 153 162 138 118
167 819 155 171 147 127
165 818 156 175 155 139
167 818 156 168 148 134
165 823 153 166 141 118
167 822 153 200 177 159
162 827 150 173 143 119
160 830 149 173 152 136
162 831 148 192 169 153
165 827 150 190 155 120
167 831 147 191 160 130
164 831 148 170 150 134
167 828 150 184 157 136
161 824 153 179 156 135
164 824 153 160 139 120
167 824 153 158 132 110
169 817 157 164 132 104
171 816 157 187 144 110
168 820 155 190 162 136
168 822 154 174 148 124
171 822 153 182 150 121
173 816 158 207 166 122
174 816 158 213 174 131
172 821 154 217 182 149
174 820 155 171 140 107
175 822 154 209 169 127
170 825 151 186 156 124
169 830 147 176 143 108
168 829 149 155 123 89
171 828 149 186 141 98
172 826 151 180 152 127
174 826 150 208 179 153
173 831 146 216 189 166
172 828 149 194 146 97
175 828 149 211 180 153
174 824 152 134 97 60
180 815 159 185 137 93
176 818 157 184 147 116
179 816 158 208 173 140
177 820 155 174 143 112
178 821 154 210 182 158
178 822 154 217 190 169
181 817 158 218 189 164
183 817 158 198 177 163
180 821 154 203 180 161
182 820 155 118 102 89
183 823 154 199 187 182
177 827 149 220 194 176
178 826 150 208 187 170
177 831 147 213 196 185
176 829 148 172 147 124
180 827 149 222 202 190
182 827 149 202 188 181
180 831 147 193 180 178
183 831 147 184 162 148
183 829 149 189 171 158
179 825 152 117 92 77
183 824 152 203 182 167
185 819 157 220 203 194
186 819 158 157 153 152
184 823 154 192 182 180
184 820 156 194 173 159
187 821 156 173 158 150
190 818 159 145 132 128
188 821 157 176 152 141
191 821 157 157 102 112
190 823 156 212 179 176
186 826 151 186 168 156
186 831 147 182 167 165
185 828 150 169 142 131
187 829 150 147 129 137
188 828 150 92 89 107
189 830 149 137 147 164
190 831 149 145 151 165
185 825 152 186 167 152
186 824 154 163 145 138
189 824 155 206 187 179
190 824 155 186 179 180
191 827 152 162 153 152
161 800 167 177 143 130
162 801 167 175 152 141
163 803 166 132 128 129
160 804 164 109 88 81
163 804 164 109 116 129
165 801 167 150 140 138
167 800 167 92 92 97
165 806 163 75 79 89
165 805 164 37 23 35
165 800 168 105 105 113
160 810 161 109 99 106
163 809 162 175 154 136
163 812 160 75 52 49
164 810 161 204 183 167
166 809 162 201 177 159
164 812 160 107 75 61
168 802 166 207 189 178
170 803 166 210 188 171
168 805 164 153 123 106
170 805 165 170 149 133
172 802 167 169 150 141
175 802 167 181 161 145
172 806 165 196 167 145
175 804 166 171 151 138
170 800 168 85 63 59
174 800 168 171 151 135
168 809 162 171 148 129
169 811 161 162 137 113
171 810 161 190 169 153
171 812 160 158 133 108
172 811 161 197 174 156
174 811 161 171 143 117
173 812 160 163 138 116
175 814 160 185 158 136
177 804 167 186 161 138
178 805 166 203 170 135
179 806 166 206 168 129
181 806 166 212 176 142
183 807 166 188 152 111
177 802 168 170 146 126
178 802 169 176 154 138
181 801 170 198 173 152
182 801 170 192 167 144
183 803 170 195 169 148
176 808 163 189 163 144
177 810 163 199 166 132
177 808 164 161 134 108
177 813 160 137 104 91
179 813 161 167 123 91
182 810 163 146 97 62
181 810 164 149 102 75
180 812 161 208 169 132
181 814 161 210 176 145
182 814 161 214 183 155
185 807 167 147 122 96
184 803 169 206 175 154
186 802 171 153 120 85
186 800 172 168 132 108
184 805 168 174 142 120
187 804 170 205 172 137
188 800 173 220 183 152
191 800 173 210 176 140
189 805 169 217 187 159
189 807 168 182 156 135
190 807 168 197 175 159
185 808 165 212 177 143
186 809 165 220 190 162
187 811 164 196 171 151
184 815 160 190 164 143
187 813 163 140 132 129
188 808 167 173 142 108
189 810 166 204 184 170
190 810 166 205 190 183
188 814 162 181 175 177
191 815 162 131 130 135
191 813 164 151 136 126
188 816 161 213 195 184
191 816 161 176 159 147
180 768 192 96 107 125
183 768 193 145 132 142
185 769 193 176 160 156
185 771 193 176 143 138
186 771 193 163 130 118
187 772 192 164 128 105
189 771 193 159 134 128
190 771 193 145 124 122
190 773 192 125 114 114
135 832 136 151 101 97
137 833 130 178 157 164
138 833 131 137 128 146
137 833 133 171 152 148
139 833 132 95 58 88
140 833 129 103 90 139
141 834 131 133 150 167
142 835 131 88 100 118
140 834 135 126 116 109
143 836 131 71 74 77
137 832 136 136 154 172
139 833 136 122 145 167
138 832 140 87 52 121
139 832 143 79 83 123
140 834 139 75 73 104
140 833 140 86 61 115
141 835 140 70 76 80
142 834 143 150 136 129
142 836 138 128 126 130
140 832 145 126 129 141
142 833 145 175 151 133
143 834 144 167 140 118
146 835 128 66 81 92
147 836 128 134 133 135
144 836 132 144 135 130
144 837 135 174 153 136
147 838 132 192 169 152
149 836 128 191 165 142
150 837 128 211 171 131
151 838 131 181 159 142
149 838 134 227 182 131
150 839 134 231 191 148
145 837 137 190 152 121
147 838 136 234 185 135
145 837 140 129 86 92
147 837 141 183 152 127
148 838 136 226 172 123
149 838 139 161 141 130
150 839 139 169 149 138
149 837 143 168 140 124
151 837 142 178 156 141
153 838 128 217 171 127
154 838 128 215 176 143
152 839 132 141 116 92
155 839 132 170 153 142
159 839 128 229 201 175
154 839 136 196 173 158
152 837 142 203 178 160
154 836 143 211 196 189
155 838 141 144 110 89
158 839 138 194 179 170
157 837 142 198 174 155
158 837 142 197 172 152
153 840 133 197 176 161
155 840 134 221 195 174
158 840 130 189 167 150
156 840 135 223 201 185
159 840 134 181 164 152
158 840 137 201 176 157
144 835 145 185 148 117
146 835 144 183 155 128
147 832 148 152 140 136
148 834 146 100 93 90
149 832 148 91 70 67
152 835 145 101 104 115
155 835 144 144 133 128
153 836 144 183 178 179
157 835 144 191 171 157
158 834 145 179 160 146
157 832 148 165 141 119
160 839 138 194 171 151
162 839 139 224 190 157
161 837 142 219 181 142
163 836 142 206 169 136
164 839 136 211 172 130
166 839 136 196 167 140
165 837 140 219 166 132
164 838 141 216 178 138
167 836 143 187 150 103
161 840 130 207 187 171
163 840 131 201 183 171
162 840 132 209 188 171
164 840 129 205 185 170
166 841 128 190 158 131
164 840 133 216 192 172
166 840 133 229 197 170
160 840 137 184 156 130
167 840 136 158 138 120
168 838 139 230 187 139
170 838 138 222 191 163
169 837 140 200 161 120
170 837 141 211 180 151
172 835 143 208 175 146
173 837 139 95 91 91
174 837 139 125 118 120
174 838 139 142 139 148
173 836 142 211 187 168
168 841 129 197 162 123
171 841 128 202 180 163
169 841 132 213 183 157
171 841 133 220 194 173
173 841 131 209 160 102
174 842 128 235 181 128
173 841 133 237 214 198
175 841 133 224 211 206
172 840 136 188 149 98
160 834 145 219 200 189
162 833 146 169 145 123
163 835 144 193 158 118
161 836 144 222 183 141
164 835 145 179 146 106
167 832 146 142 113 87
169 833 145 137 99 73
169 834 144 160 123 96
170 835 144 189 146 121
172 834 144 186 143 93
175 832 146 213 190 173
177 834 143 146 137 134
176 837 139 111 94 88
176 838 139 122 120 124
179 839 136 204 181 162
178 836 141 203 183 170
181 835 143 159 150 146
180 838 137 183 162 146
183 837 139 188 173 164
180 836 141 159 128 113
183 836 141 142 120 115
176 842 131 221 179 129
178 842 130 158 140 150
177 841 133 208 193 187
179 841 133 192 182 178
181 842 129 162 163 170
183 842 129 180 181 190
181 841 133 187 174 166
182 840 134 182 169 164
185 835 142 76 74 89
185 837 139 169 165 169
186 838 137 104 117 133
184 836 141 90 87 97
188 834 143 179 172 174
191 835 143 123 104 90
188 838 138 172 161 162
191 839 137 109 144 175
190 836 141 174 165 163
185 842 129 200 190 188
186 843 129 179 172 173
185 841 132 209 186 169
187 841 132 166 131 116
188 843 128 178 169 168
189 843 130 122 112 106
188 841 132 157 119 104
189 841 134 151 158 168
191 840 134 107 139 166
176 832 145 207 183 164
177 834 144 115 104 99
178 834 144 97 90 90
181 832 146 181 151 138
182 832 146 164 115 110
185 832 146 170 158 155
186 834 144 168 167 175
188 834 144 187 180 186
191 833 146 117 107 101
192 775 191 50 34 42
196 775 191 201 180 165
193 776 190 72 47 52
194 776 190 155 132 123
195 779 188 90 70 61
192 782 186 168 144 122
194 782 186 181 159 143
197 776 191 201 176 156
197 778 190 192 167 147
198 778 190 185 157 136
197 782 187 143 122 103
197 781 188 153 135 124
202 775 191 211 189 178
200 779 189 165 139 121
203 776 191 191 167 149
200 782 187 189 162 135
203 782 187 151 124 101
201 782 188 177 148 128
204 776 191 192 167 147
204 779 190 216 176 135
206 778 190 190 153 112
206 783 187 153 119 102
206 781 188 194 153 114
193 799 174 176 141 112
192 787 182 176 147 119
192 789 181 199 174 163
193 790 181 171 142 113
194 791 181 162 129 93
196 788 183 184 148 105
197 790 182 208 175 144
198 790 182 186 154 123
193 785 184 182 161 145
196 784 185 209 188 174
198 784 185 186 156 127
199 786 185 181 155 131
192 795 178 204 164 120
195 794 179 164 129 100
193 796 177 198 160 119
195 797 176 197 168 142
197 795 178 208 168 135
196 793 180 148 104 74
199 793 180 198 165 145
196 799 176 149 127 110
198 798 177 215 190 171
200 791 181 201 169 136
203 789 183 120 85 66
204 789 183 106 65 53
205 790 183 75 39 30
206 791 182 104 100 100
201 785 186 218 186 156
202 785 186 231 198 168
203 787 185 213 170 121
204 787 184 206 172 141
206 786 185 212 179 149
207 788 184 206 182 164
203 795 179 162 146 139
203 792 181 213 185 161
200 798 176 209 190 177
203 796 178 118 117 130
206 795 179 188 168 154
205 794 180 221 201 186
207 794 180 208 187 171
204 799 176 184 163 148
207 796 179 180 150 142
208 776 191 159 132 104
209 779 190 171 140 109
211 778 190 161 133 107
209 780 189 211 169 124
211 781 188 221 195 174
213 779 189 191 155 117
214 779 189 151 130 112
213 783 187 206 189 181
212 782 188 221 197 180
215 782 188 202 188 182
222 775 191 125 127 133
217 779 189 113 115 121
219 777 190 210 190 176
218 782 187 170 150 141
217 781 189 111 120 132
219 782 188 174 168 168
221 778 189 164 135 126
222 778 189 143 78 76
221 782 187 114 125 140
223 783 186 163 157 158
222 781 188 164 153 152
209 790 182 155 143 137
211 790 183 188 168 152
215 788 183 160 138 126
209 784 187 133 112 105
210 784 187 125 122 131
211 787 184 196 182 175
213 784 186 125 127 136
214 784 186 131 127 127
215 787 184 185 167 155
208 792 181 136 137 143
209 795 180 163 114 92
211 794 180 169 161 158
208 799 176 149 149 153
211 796 179 180 173 171
211 798 178 103 114 128
212 795 180 143 146 153
215 794 180 158 149 148
213 798 177 103 127 150
214 798 177 100 128 154
217 788 183 92 83 79
218 789 183 128 118 113
220 788 183 87 97 110
221 791 182 107 106 109
223 790 183 125 123 126
216 786 185 167 147 137
218 785 186 183 110 122
217 788 184 62 44 47
220 786 184 147 134 125
222 784 186 115 119 128
221 788 184 82 96 111
216 794 180 159 150 149
218 795 180 182 158 138
216 798 178 96 100 111
218 798 178 97 62 52
221 793 181 170 146 124
223 793 180 188 145 108
221 796 179 184 149 122
221 798 178 188 143 124
222 799 177 203 146 122
193 821 159 120 124 143
195 821 159 165 157 158
196 822 159 178 166 162
192 829 151 170 159 157
193 831 150 151 152 160
196 831 151 166 160 160
192 827 153 142 130 127
194 827 155 122 115 117
194 824 157 160 162 170
193 828 152 97 73 71
194 828 154 120 98 82
197 824 157 133 128 131
199 825 157 102 129 154
198 827 156 114 143 170
197 828 154 141 153 169
198 828 155 127 147 167
199 831 152 203 182 164
205 831 151 197 144 120
200 827 156 184 177 176
202 825 159 163 134 107
203 827 157 199 154 129
200 830 152 185 158 134
203 828 155 211 162 137
200 828 156 183 173 170
204 826 157 202 149 125
206 825 159 199 143 121
207 826 158 203 144 122
204 831 152 206 155 133
206 830 153 208 153 131
209 825 159 196 139 117
210 825 159 196 137 117
208 829 154 211 155 133
209 831 152 190 134 112
210 831 153 191 136 114
211 828 156 210 157 131
214 825 159 196 138 116
215 827 158 198 142 117
213 830 154 185 134 111
215 830 155 183 135 111
215 828 157 196 143 119
217 826 158 193 137 115
219 826 159 193 138 117
217 830 155 186 139 116
216 828 157 191 138 115
219 828 157 191 138 115
222 827 158 191 136 115
222 830 155 185 137 112
222 828 157 190 137 116
192 803 171 142 99 68
193 802 172 211 185 163
194 802 173 215 188 166
192 806 169 207 185 168
194 805 170 80 85 100
195 804 172 194 176 165
196 803 172 216 196 183
199 801 174 117 121 128
196 805 171 130 125 127
198 805 171 177 162 152
197 805 172 179 164 153
193 811 165 177 165 160
195 810 167 156 143 133
193 812 165 195 180 172
194 812 166 156 152 152
196 811 167 144 133 131
197 812 166 189 166 159
198 812 166 189 130 146
198 814 166 123 100 104
195 809 168 199 178 163
198 808 169 163 151 147
199 811 168 175 119 115
200 802 174 121 129 141
202 802 174 152 145 143
201 807 170 185 161 166
200 805 172 173 143 124
203 805 172 166 145 142
204 802 175 178 139 139
206 802 175 188 169 166
204 805 172 153 155 163
207 804 173 153 158 170
200 813 167 152 137 143
201 815 166 143 148 158
202 815 166 137 145 158
205 815 166 146 151 161
200 808 169 194 177 166
201 810 169 154 144 138
202 811 168 127 110 97
205 808 170 109 122 138
206 808 171 113 126 141
207 811 169 151 144 141
206 800 176 166 134 122
192 818 160 160 100 100
195 816 163 184 148 153
193 820 160 188 154 159
197 816 163 140 116 128
199 817 163 142 143 151
198 816 164 149 149 152
197 821 160 109 94 91
199 822 160 113 93 83
202 819 163 127 145 164
202 816 165 112 134 156
201 821 161 160 145 135
201 823 160 142 126 114
202 823 161 146 130 115
204 817 164 100 119 138
206 816 165 156 139 127
207 819 164 151 108 89
204 823 161 149 118 98
207 820 163 171 130 107
207 822 162 184 137 114
208 803 174 166 160 160
208 807 171 103 134 163
209 805 173 116 129 148
210 806 172 109 118 134
213 803 174 171 154 142
214 807 170 174 119 102
213 805 173 126 92 62
215 805 172 172 122 105
208 814 167 180 147 117
210 815 165 155 109 91
213 812 167 177 127 110
214 813 166 200 147 129
208 809 170 129 152 174
210 808 170 192 178 169
211 810 169 154 109 89
212 808 170 162 118 95
213 811 168 168 116 102
215 810 168 200 148 132
216 802 175 183 149 120
218 802 174 193 144 125
217 806 171 206 152 130
216 804 173 180 130 114
219 804 172 205 145 125
220 802 175 203 147 123
223 803 173 204 147 128
221 807 170 204 148 126
223 807 171 200 142 121
222 805 172 201 144 124
216 815 165 198 144 125
219 813 166 204 150 133
220 813 167 203 150 132
222 812 167 200 147 128
223 815 166 193 136 114
217 810 169 206 150 130
219 810 168 204 149 132
221 808 170 203 146 125
223 808 169 198 141 121
220 812 168 202 149 131
210 801 176 98 71 62
215 800 176 188 167 150
218 800 176 184 139 106
209 818 163 183 141 120
209 817 164 162 118 101
210 818 164 185 141 120
208 823 160 191 138 116
210 821 162 190 137 115
210 822 162 189 137 114
215 819 163 185 131 110
214 816 164 192 139 117
212 820 163 189 137 114
214 820 162 186 132 112
215 822 162 186 132 112
213 825 160 194 137 117
217 818 163 185 131 111
217 816 165 195 140 121
219 817 164 188 135 113
216 823 161 186 130 109
219 821 162 180 125 105
222 818 163 181 123 104
220 818 164 185 130 109
220 820 163 179 123 105
222 820 162 176 120 103
216 824 160 190 134 110
219 824 160 188 133 109
222 824 160 185 131 108
227 770 191 168 155 147
224 775 190 165 156 151
226 775 189 147 142 142
229 771 191 123 111 107
229 772 191 84 80 90
230 772 191 59 62 89
230 775 190 149 150 158
224 779 188 158 136 128
226 778 189 122 132 146
224 783 186 173 165 165
226 782 187 102 91 84
228 777 189 115 127 143
230 777 188 110 132 155
228 780 187 141 140 144
229 782 187 175 159 148
230 783 186 170 143 120
235 769 191 109 92 82
232 774 189 133 136 147
235 773 190 133 116 101
237 770 191 115 126 142
237 772 191 114 108 108
238 772 191 113 103 102
238 774 190 182 152 125
233 777 188 105 97 104
235 776 189 181 158 138
233 781 186 185 148 116
234 781 186 180 135 105
236 778 187 174 130 112
236 776 189 204 178 154
239 776 188 178 135 110
237 780 187 195 152 127
238 780 186 205 155 130
239 783 185 206 148 128
239 799 175 202 138 117
224 791 182 118 116 117
227 791 181 201 147 126
228 788 183 186 140 114
228 791 182 201 148 124
230 791 181 203 146 119
224 784 186 149 147 151
226 785 185 150 140 135
228 784 185 122 99 86
230 784 185 140 99 76
225 794 179 201 148 126
224 793 181 181 143 112
227 792 181 203 149 130
225 797 178 204 146 123
226 796 178 205 148 122
228 795 179 204 147 121
231 794 179 203 147 121
230 792 180 202 143 121
228 798 177 204 147 122
230 796 178 202 144 121
232 787 183 204 151 124
232 788 182 204 146 123
233 791 180 203 146 120
234 791 181 202 145 122
237 787 183 206 148 124
236 789 181 202 144 122
237 790 181 203 148 123
238 791 180 205 146 120
233 785 184 202 153 125
236 785 184 207 151 127
232 794 179 202 147 120
235 794 179 205 145 120
232 796 177 201 141 119
233 799 176 202 138 117
234 799 176 202 140 117
236 795 178 204 143 120
239 795 177 205 144 123
239 792 180 207 147 123
236 799 176 199 137 114
240 771 191 157 137 121
240 772 190 127 97 77
241 775 189 183 141 116
242 775 188 198 150 125
246 769 191 168 130 104
244 772 190 182 144 118
247 772 189 206 156 126
247 783 183 206 148 122
242 778 187 210 157 133
242 776 188 205 154 128
240 783 184 205 147 126
242 780 186 209 154 130
244 778 187 209 153 126
246 778 187 209 152 126
244 780 185 208 150 124
245 782 184 208 153 126
246 782 185 208 153 128
249 770 190 207 158 129
251 770 191 206 152 123
248 775 188 207 152 124
251 774 188 208 153 123
253 771 190 207 153 124
254 771 190 207 152 126
253 773 189 208 152 125
254 774 188 209 153 124
253 783 183 206 146 123
249 777 187 208 151 124
251 776 187 207 152 123
248 776 188 208 152 123
249 783 184 208 150 123
251 782 184 208 150 122
252 778 186 209 152 125
255 777 187 209 153 124
253 780 185 208 149 123
255 780 185 207 149 121
242 799 175 198 132 111
245 798 175 201 137 115
248 797 175 201 139 116
250 796 175 202 141 117
251 798 174 201 140 116
253 796 175 200 140 117
254 796 175 202 142 119
255 799 172 201 138 114
242 784 183 204 146 123
242 791 179 206 144 122
240 790 181 206 145 123
242 788 182 205 143 121
245 785 183 205 146 122
247 784 183 207 148 123
244 791 179 205 147 121
244 791 180 206 148 122
246 790 180 205 146 121
240 793 179 207 146 124
241 795 178 206 145 122
242 794 178 204 144 120
241 798 176 202 141 117
244 793 178 202 143 120
245 794 178 200 141 116
246 795 177 201 139 115
246 796 176 203 139 117
248 787 181 207 148 124
251 784 183 207 148 124
249 790 179 206 147 125
248 789 181 207 148 123
251 788 181 205 146 119
253 785 182 205 145 120
255 785 181 204 147 121
255 787 180 203 145 122
255 789 179 203 147 120
253 789 180 204 148 123
249 792 179 203 146 121
251 793 177 202 142 117
248 796 176 202 143 120
252 794 177 202 141 115
255 793 177 203 144 119
225 826 159 184 132 110
224 831 155 185 138 113
225 828 158 187 134 112
226 828 158 186 134 111
228 827 159 184 132 108
231 827 158 174 120 96
228 831 156 181 133 107
230 831 157 178 128 103
234 825 159 172 115 94
232 829 157 172 119 95
234 828 157 170 116 93
235 831 157 167 117 93
238 824 159 167 111 92
239 826 158 168 113 96
237 830 157 164 116 96
239 831 157 163 118 96
247 822 159 186 132 110
240 826 158 169 115 98
242 827 157 168 116 97
240 831 157 163 117 95
243 830 157 163 116 93
244 827 157 170 117 98
247 824 158 187 135 112
245 828 157 172 121 102
247 829 157 177 130 108
249 822 159 181 120 99
251 822 159 185 126 106
252 823 157 175 113 94
255 820 158 176 115 94
254 822 158 179 117 99
249 827 157 178 126 98
250 826 157 172 118 90
248 829 157 180 133 108
249 831 156 175 128 102
252 827 155 166 113 93
254 827 155 165 112 93
252 826 156 166 110 91
253 828 155 164 113 91
254 828 154 162 113 89
254 830 154 160 116 88
224 803 174 204 147 125
226 803 173 200 140 118
225 806 171 197 140 120
227 807 171 193 136 115
226 805 172 197 141 121
229 801 175 202 143 119
231 801 174 198 137 115
229 807 170 189 132 112
228 804 173 199 139 118
231 804 173 196 138 115
225 814 166 188 131 112
227 814 167 184 126 110
229 814 166 181 123 103
230 814 166 182 124 105
225 808 170 195 140 118
227 808 170 191 134 114
226 812 168 189 132 111
228 811 168 185 126 106
231 808 170 183 121 100
230 812 168 183 125 105
233 802 174 197 137 116
235 802 174 198 138 116
234 807 170 186 128 109
233 804 173 195 138 117
236 800 175 200 139 118
236 802 174 197 137 113
238 803 172 195 135 113
236 807 171 189 131 112
239 807 170 191 131 110
232 812 167 181 124 103
233 814 166 182 127 107
235 815 165 182 126 105
236 813 166 178 122 102
237 814 166 179 123 103
238 814 166 178 122 101
233 810 169 181 124 103
235 810 168 180 122 102
237 808 170 188 129 107
239 809 169 183 124 101
226 800 176 203 144 122
224 818 164 178 119 99
224 820 163 175 119 99
226 820 162 174 118 100
227 822 162 171 117 97
228 818 164 176 120 102
228 821 162 170 115 95
230 821 162 173 120 99
224 824 160 183 131 109
227 824 160 178 128 105
230 824 160 176 120 99
233 819 163 182 129 105
233 817 164 185 130 109
234 818 164 183 128 105
232 823 161 173 118 99
235 820 163 177 120 99
236 819 163 178 120 98
236 816 164 180 124 101
238 817 164 177 118 99
237 821 162 168 109 90
239 820 162 172 110 93
233 824 160 173 115 95
240 800 174 200 136 113
241 803 172 195 136 114
243 802 173 197 135 114
241 806 171 194 134 112
243 806 170 194 134 111
245 801 173 198 134 115
246 801 173 197 131 113
247 803 172 198 135 116
246 804 171 197 135 114
246 807 170 194 135 112
243 811 167 181 120 100
241 814 166 178 118 98
243 814 165 179 117 98
246 811 167 187 128 106
245 813 166 180 119 100
246 812 166 184 123 103
247 815 164 181 120 100
240 811 168 180 121 102
242 808 170 191 132 110
245 809 168 192 131 110
247 810 168 193 134 110
249 800 173 199 136 117
250 801 172 199 138 117
249 804 170 196 133 111
250 804 170 196 135 113
251 807 168 194 131 110
253 803 171 198 135 112
252 800 172 201 144 116
253 804 169 194 131 110
253 807 168 192 128 106
254 806 169 192 129 110
249 811 166 193 131 111
250 815 163 183 123 101
248 815 164 182 121 101
250 812 166 190 126 106
253 809 167 194 132 108
255 808 167 195 131 110
252 815 163 184 122 103
255 814 163 186 122 103
253 814 164 185 120 102
248 809 168 196 137 114
252 808 168 193 131 108
241 818 163 175 113 94
240 816 164 176 115 98
243 816 164 178 120 98
240 823 160 168 108 90
242 820 162 173 114 96
244 818 162 179 120 103
247 817 162 179 118 99
245 816 164 177 118 96
244 822 160 183 129 109
247 822 160 188 135 113
249 819 161 181 125 106
250 818 161 183 126 107
248 821 160 182 124 104
253 817 161 179 118 97
253 818 161 178 118 96
254 818 160 176 116 96
193 769 195 155 110 96
195 768 195 148 125 110
193 768 196 165 120 111
193 774 192 147 134 136
197 769 195 134 121 119
198 770 195 98 75 78
199 768 196 131 116 116
197 774 192 208 195 189
198 775 192 219 204 197
201 771 195 208 185 165
200 768 196 140 134 137
200 773 193 106 82 73
202 772 193 198 174 154
203 774 192 183 164 150
207 769 195 41 25 34
206 768 196 34 24 39
205 772 194 188 165 146
207 773 193 194 175 161
208 769 195 75 53 58
210 771 194 202 170 139
211 768 196 169 149 132
209 774 192 182 158 139
210 774 193 190 160 132
213 770 195 170 137 108
212 769 196 147 120 93
213 772 193 218 185 155
213 775 192 214 168 112
214 776 192 208 177 147
219 770 194 207 175 152
219 768 196 215 172 121
217 775 192 209 179 153
219 774 192 165 149 139
220 770 195 205 166 126
223 768 195 193 162 130
220 769 196 210 166 111
221 774 192 102 114 128
225 768 193 124 126 131
225 770 192 177 164 157
227 770 192 134 129 128
230 769 192 166 133 123
235 768 192 128 131 140
239 769 192 91 107 124
242 769 192 203 180 160
246 769 192 160 123 96
251 768 192 206 156 126
192 839 137 130 146 164
194 839 138 212 193 180
193 837 140 138 138 142
194 836 142 137 118 100
196 839 139 193 170 151
197 837 143 147 109 85
198 837 143 170 126 104
199 838 143 182 133 109
195 843 131 197 168 143
192 842 133 135 124 125
194 842 133 133 112 107
193 844 129 166 152 143
195 844 130 213 185 160
196 842 134 177 145 120
199 842 135 199 149 120
196 844 131 196 161 133
198 845 131 207 154 125
197 844 132 206 158 129
194 840 136 149 130 116
197 840 137 181 142 127
199 841 137 196 146 120
200 837 143 182 132 109
202 839 141 189 139 115
205 839 143 180 134 109
201 847 128 212 159 128
202 847 130 205 153 123
201 845 133 198 146 118
202 844 135 197 146 119
204 847 131 199 148 117
204 846 134 195 145 116
200 840 139 193 142 117
201 842 137 196 145 118
202 842 138 192 141 115
202 840 140 190 139 115
204 843 137 192 141 113
205 841 141 182 133 108
206 840 143 177 131 106
207 842 141 179 131 107
205 845 137 191 140 113
207 845 138 186 135 108
192 833 145 121 114 115
193 834 145 132 144 159
194 835 145 152 152 158
193 832 149 118 137 157
197 835 145 202 178 157
199 834 147 166 128 103
196 832 150 158 159 166
199 832 151 202 180 162
199 836 144 173 123 103
202 835 147 183 135 112
201 834 148 179 133 110
202 834 148 184 137 113
201 837 145 182 133 109
203 836 146 182 134 111
204 832 151 195 145 121
206 833 149 185 134 112
206 834 149 184 135 111
205 836 146 181 132 109
206 836 147 180 131 109
207 839 144 174 129 105
204 848 129 205 153 122
205 849 130 201 151 119
207 851 128 211 161 125
206 848 133 192 141 114
207 850 132 192 140 113
209 842 143 175 129 105
208 847 137 185 135 108
208 844 141 179 132 106
210 844 143 174 130 105
211 847 141 181 136 106
208 832 150 184 131 111
209 835 148 180 133 111
210 835 149 180 133 112
209 837 146 176 130 108
210 836 147 176 131 110
209 836 148 177 131 109
213 833 151 182 138 114
214 834 150 182 137 115
212 836 148 176 133 109
213 839 148 175 130 106
214 839 148 175 129 106
213 832 152 183 138 114
208 841 144 174 130 106
210 840 146 175 132 109
212 841 146 174 129 107
213 842 146 174 130 106
215 843 147 174 129 104
212 844 144 175 131 104
214 844 146 174 130 104
215 846 146 171 126 99
217 837 151 173 128 103
219 837 151 171 128 102
217 833 152 181 136 111
219 833 153 181 135 110
219 836 152 173 129 103
220 834 152 176 131 106
223 832 154 182 135 110
220 836 152 171 128 102
221 838 153 170 129 102
222 839 153 171 129 102
217 841 149 172 127 102
218 840 150 172 128 102
219 842 151 169 125 98
216 844 148 172 127 100
218 844 149 170 125 99
220 841 151 170 126 101
220 846 150 163 121 93
221 841 153 168 125 99
222 842 153 166 125 98
